ply
format ascii 1.0
comment Created by CloudCompare v2.11.1 (Anoia)
comment Created 2026/6/3 下午10:40
obj_info Generated by CloudCompare!
element vertex 1887
property float x
property float y
property float z
end_header
20.2131 4.05408 11.7415 
19.7926 -2.43457 12.3062 
23.1283 6.73319 12.0368 
22.7805 -2.66896 13.2215 
20.3739 -0.863525 12.7817 
19.3512 0.957239 12.8915 
19.1482 0.939614 13.5462 
20.0177 4.0191 13.7834 
22.5543 4.61989 14.3808 
20.2616 4.02382 15.3234 
22.267 4.65851 14.9956 
19.8125 -2.33038 15.7712 
21.9349 -2.61558 15.4559 
18.0567 0.94786 16.0112 
23.0053 6.64737 15.601 
19.9505 2.50941 16.3718 
23.0014 6.70489 16.2056 
20.2176 -0.766061 17.0711 
23.8145 -2.69244 18.6382 
18.5505 0.97902 19.0513 
20.3912 -0.850939 20.6202 
20.5792 4.30386 20.6025 
20.435 1.04574 21.2081 
18.8269 0.998004 22.2494 
20.9295 4.52995 22.1687 
21.5031 4.47852 21.8845 
20.1468 -2.38319 22.9153 
21.4826 -0.816959 23.4424 
21.9952 2.65246 24.4409 
23.2262 1.13835 27.2175 
24.002 1.0498 29.3604 
23.3912 2.90621 30.7244 
23.3522 1.11719 32.4496 
17.7774 0.484708 0.752385 
18.7838 5.32916 1.21846 
22.7512 -2.98501 2.24282 
23.3935 -3.06573 2.63494 
19.0182 2.30556 2.29427 
20.5992 2.42081 2.67298 
20.5999 2.42193 3.31812 
17.9687 0.396285 5.23117 
17.959 1.82179 5.19246 
18.9268 2.29709 5.29248 
18.9236 3.63491 5.19819 
22.6413 6.47615 5.35676 
19.4401 0.404967 5.70988 
19.3114 2.28619 5.81876 
23.4731 -3.04998 6.61483 
19.1195 2.23234 6.66049 
20.8242 3.9996 6.75631 
20.1481 0.613638 7.37002 
20.8519 4.00588 7.32168 
18.9652 2.24535 8.79362 
19.0237 3.80176 8.88673 
23.5521 -2.96447 9.43151 
20.013 -2.47638 9.23842 
20.7584 2.46025 10.7958 
20.5809 -0.989262 11.7506 
19.4826 0.610948 11.8249 
20.6123 2.43671 11.3704 
18.8234 2.29823 12.3458 
21.1709 5.83936 12.138 
20.3649 0.612662 14.2922 
19.8009 2.34186 15.2649 
21.9845 4.4399 14.9484 
18.7217 0.407994 15.6306 
19.8587 0.417632 16.374 
20.4049 3.97432 16.3765 
23.015 6.56772 16.2035 
20.4817 -2.61159 19.0347 
22.2683 6.18529 19.0605 
19.5388 0.602136 19.7831 
19.6545 2.35652 19.8578 
20.4118 4.04277 19.8002 
20.0358 0.614521 21.6223 
22.7825 4.60476 21.6114 
22.962 -2.98226 22.225 
19.9699 0.427059 22.0383 
22.9504 6.52917 22.4762 
22.1779 0.956965 24.6879 
23.4735 0.790791 28.9733 
23.9624 -4.50302 1.25017 
19.1251 -3.53583 1.02567 
19.2536 -0.102027 1.12787 
18.5956 1.70873 1.06294 
19.3164 3.28439 1.13503 
21.3651 5.76757 1.03494 
22.0071 5.95649 1.10426 
22.9025 8.069 1.06522 
20.4744 -1.87494 1.63778 
19.5278 -0.169 1.6776 
18.7991 1.6422 2.05601 
19.4102 3.20997 1.75004 
21.9974 5.76543 1.80762 
20.1948 -1.67589 2.46649 
22.7222 -1.9384 2.16002 
18.934 1.82665 2.45872 
19.9254 1.64351 2.70824 
19.4391 -0.125467 3.01553 
20.633 -0.156417 3.19729 
20.5962 3.767 3.01811 
22.8146 6.11041 3.11674 
20.5983 3.76584 3.65661 
20.5771 -1.74912 4.35393 
23.2763 -3.77369 5.27224 
19.9429 -1.59854 5.33646 
18.4123 0.0665749 5.15596 
18.0511 1.69422 5.25084 
18.642 3.20355 5.1093 
19.1417 3.24332 5.27502 
18.8606 5.19933 5.41367 
21.9124 5.89166 5.30977 
19.3359 0.221817 5.85705 
18.8132 1.63062 6.01151 
19.6754 3.24842 5.64877 
19.1398 5.15981 5.76632 
20.1994 -1.55988 6.65767 
19.2489 0.25668 6.56507 
20.8917 0.115579 6.69541 
19.9732 1.62843 6.68086 
21.9644 5.69927 6.67725 
23.5231 5.99918 6.56929 
20.8851 0.116797 7.39519 
20.6643 3.70133 7.33547 
20.013 1.76171 7.81195 
19.3621 -1.48079 8.76385 
19.981 -1.60247 9.00634 
18.4873 0.33866 8.83505 
19.292 0.138314 8.903 
18.616 3.06627 8.76272 
19.2054 3.26289 8.95285 
19.0899 4.94459 8.90012 
23.9167 -3.77547 9.37369 
19.6339 -3.04978 9.47067 
19.469 0.360654 9.47546 
19.1681 1.68632 9.36953 
22.8084 5.82238 9.24276 
20.3877 -1.50747 10.2227 
20.6252 0.173299 10.3943 
20.0694 1.63983 10.4591 
22.6108 5.78197 10.1559 
20.6155 0.178321 10.8147 
20.1134 1.77217 10.8535 
22.8047 5.82544 10.5472 
23.155 5.84051 11.6544 
19.9951 -1.21074 12.3386 
19.2328 0.194081 12.3236 
19.0433 1.70669 12.1683 
19.3619 3.28069 12.3941 
19.8101 3.25921 12.0579 
19.1215 4.68689 12.4004 
19.7351 -2.95319 12.9908 
20.4153 -1.14744 12.9024 
19.805 0.204395 12.8922 
19.6222 1.92545 12.8737 
20.0266 3.39744 12.9758 
19.379 4.96026 12.8782 
20.4228 -1.32443 14.0347 
20.6646 0.450186 14.4017 
20.237 1.80387 14.3691 
22.563 5.6808 14.0442 
20.5778 -1.11088 15.1938 
20.4976 0.454873 14.9019 
20.1684 1.80069 14.8681 
20.4823 3.29958 14.8988 
23.8989 -3.2084 15.4437 
19.8616 -2.6466 15.8232 
19.7785 -1.06176 15.5714 
20.4601 -1.28264 15.7592 
19.8084 3.3548 15.6014 
19.2373 4.66312 15.8323 
20.0726 5.07195 15.5702 
20.5219 -1.07174 16.4746 
19.7147 0.254448 17.0776 
23.0036 5.7298 17.1903 
21.9002 -1.22965 18.0651 
20.9016 3.55232 17.8721 
23.1667 5.74723 17.642 
22.6606 -2.98537 18.8121 
19.2383 0.296135 18.8067 
19.3231 1.74795 18.7699 
19.3025 3.23667 18.8143 
20.6775 3.7908 18.3799 
22.8275 5.73368 18.8081 
20.6548 -1.02539 19.4054 
19.8321 1.8651 19.5315 
20.5341 -1.01259 19.7937 
19.8365 0.334774 19.8276 
19.4641 1.76782 19.8642 
20.0388 3.35772 20.1146 
20.3753 3.44652 19.7188 
19.5326 4.78247 19.6107 
20.4834 -0.985909 20.5069 
19.7347 0.435992 20.4887 
19.6339 1.91036 20.4609 
20.8562 -1.00199 21.6568 
20.6674 0.554065 21.401 
20.514 1.86978 21.3556 
21.0854 3.76579 21.3643 
23.3209 -3.0161 22.234 
20.6436 -2.38961 22.3711 
21.9277 -2.61037 22.1761 
19.8229 -0.903447 22.2605 
20.7512 -0.959556 22.0647 
19.1665 0.527838 22.2179 
20.0815 0.451723 21.9735 
19.1592 1.9506 22.2364 
19.9244 1.8205 21.9913 
20.3549 3.40597 21.9576 
20.7138 5.00038 22.2434 
22.0249 5.35733 22.1507 
18.8125 0.519062 22.4712 
18.6238 1.61398 22.44 
19.7023 4.64975 22.8394 
22.4941 0.58165 24.7681 
22.4783 2.27479 25.4928 
24.0626 -5.49503 1.15267 
22.6175 -3.02947 1.03884 
19.7234 -0.815748 1.14813 
18.9474 0.894056 1.26379 
19.7591 4.52746 1.2983 
19.9816 -0.878835 1.6457 
17.5895 1.04767 1.73867 
19.6986 4.04605 1.87604 
19.6752 4.04971 2.52712 
21.3329 4.34335 2.59473 
19.931 -1.07922 2.92344 
21.0666 -1.20925 3.12433 
19.0626 0.537305 2.96689 
20.1238 0.602144 3.01677 
21.4813 -1.43229 3.71466 
20.0838 2.16592 3.80464 
23.2054 -3.81426 5.25285 
18.6423 0.173276 5.20888 
19.3619 0.202051 5.44183 
18.5861 1.74364 5.30987 
19.0645 1.79551 5.43618 
19.7429 3.6925 5.46164 
21.0968 5.41954 5.32621 
23.5319 -2.11869 6.0537 
25.2237 -2.35462 6.29143 
19.2803 0.159295 6.00807 
23.5938 5.70043 6.22266 
18.959 1.64604 6.5853 
20.8086 5.10705 6.59713 
24.2418 5.78671 6.72752 
20.6953 -0.450161 7.79215 
19.9285 1.23049 7.75863 
19.6777 3.12015 8.17679 
19.9644 4.44852 8.23405 
19.9758 -2.3905 8.93337 
19.356 -1.72214 8.76996 
18.6387 -0.280591 8.78241 
18.7135 2.69666 8.88728 
19.0989 4.53194 8.92482 
19.4827 2.50213 9.37317 
23.0052 6.75552 9.20703 
22.0837 -2.47666 9.94675 
22.8938 -2.7149 10.0737 
20.0034 -0.805466 10.2972 
19.8047 -0.456042 10.036 
20.76 2.46184 10.4396 
19.9243 4.03864 10.2951 
19.9781 4.32712 10.0298 
20.1437 0.861131 10.8762 
22.3312 4.55339 10.7909 
21.0478 -0.977026 11.3579 
19.9801 2.24067 11.6219 
21.399 4.50734 11.4221 
19.7812 -2.57328 12.4147 
19.8033 -1.12831 12.3304 
19.0848 1.91726 12.2003 
19.9714 -2.61164 12.8985 
19.3802 0.417898 13.0923 
19.882 3.43047 13.1047 
20.1121 3.80085 12.8933 
22.8801 5.81898 13.6954 
22.9428 -1.63507 14.4258 
21.0548 0.126468 14.4611 
20.7992 -0.198406 14.9514 
23.5676 -3.67217 15.8088 
19.7907 -0.256298 15.6759 
18.1037 1.04638 15.9668 
18.478 1.1007 15.5785 
18.9678 3.01323 15.5864 
19.7912 4.43253 15.7521 
20.004 -0.252533 16.5575 
17.9629 1.02777 16.3875 
19.7845 2.53906 16.4377 
20.0016 3.02976 16.3237 
20.5035 4.50498 16.6343 
20.025 -0.333891 17.0962 
19.715 2.55048 17.157 
21.0688 -0.544289 17.8583 
21.0172 2.62359 17.9552 
20.2197 -2.34126 18.7941 
21.8508 -2.244 18.7527 
19.818 0.861221 18.4015 
19.197 1.91504 18.8032 
19.9308 2.3281 18.4718 
20.5509 2.42986 18.3092 
19.4406 3.76516 18.8584 
19.9933 -2.41389 19.2506 
22.928 6.58252 19.3268 
19.8581 0.419379 19.9657 
19.4774 1.83332 19.9346 
19.8124 1.87565 19.7 
20.2013 3.73627 20.1477 
20.3567 3.88044 19.7471 
19.588 1.75035 20.4654 
21.1976 -1.11976 21.5735 
22.1086 -1.16729 21.4886 
20.1677 0.396614 21.6101 
21.2255 0.248455 21.4587 
20.4925 1.80817 21.4297 
19.9731 -1.47215 22.2411 
20.8253 -1.17608 22.0961 
19.2943 1.67857 22.1927 
19.9001 1.69446 21.8959 
22.1009 5.40546 22.1468 
24.0983 5.95045 22.2172 
18.182 1.09396 22.8367 
19.795 4.54663 22.8398 
21.4433 3.14016 23.6157 
22.4952 1.01149 25.5217 
23.225 1.23738 33.4046 
20.1077 -1.77235 1.14542 
16.4152 1.05484 1.05168 
17.1776 0.969333 1.06586 
22.9036 8.72685 1.30839 
19.8055 -0.473281 1.73467 
17.6004 0.991852 1.73105 
19.752 4.05897 1.70291 
18.7988 5.35254 1.58708 
20.6286 -2.21498 2.43339 
24.5974 -2.61188 2.22053 
19.6308 -0.564839 2.49477 
18.8136 1.03636 2.42965 
19.5518 3.84158 2.35771 
19.6532 3.96543 2.65297 
20.7637 3.97665 2.65689 
18.9234 0.811156 2.95046 
20.588 2.4036 3.14378 
20.6775 3.94858 3.31784 
19.9939 0.864311 3.84999 
19.3723 2.35092 4.44942 
19.984 -0.934978 5.41873 
19.1957 0.371185 5.41273 
18.5064 1.83852 5.28362 
19.1528 1.89262 5.44832 
18.8631 5.05749 5.34389 
19.2872 0.364389 6.01558 
19.2239 5.07382 5.69918 
24.0061 -3.1026 6.62798 
20.8184 0.25351 6.77743 
20.0159 1.76555 6.70217 
19.4786 3.32838 6.56426 
20.7041 3.7778 6.7302 
23.5533 5.99664 6.63574 
20.8303 0.224058 7.3733 
20.5318 3.38762 7.32348 
20.4999 3.31618 7.76451 
21.9434 5.40741 8.20035 
19.6326 -2.93571 8.97785 
19.374 -1.10874 8.85934 
18.4542 0.228705 8.7697 
19.1741 3.11768 8.76533 
19.6702 -2.98863 9.48465 
19.0843 1.54356 9.41119 
19.5028 3.16326 9.77642 
19.8469 4.54749 9.40363 
20.3942 -1.52821 10.1584 
22.9225 -1.70438 10.424 
23.4141 -1.89906 10.8977 
19.049 1.25345 10.5892 
20.0617 1.11906 10.9096 
20.5232 3.06166 10.8316 
22.9186 -1.77111 11.4044 
19.8854 2.51527 11.6041 
23.4649 -3.8076 12.455 
19.742 -1.62727 12.3618 
20.3825 -1.76655 12.1849 
17.9287 0.988977 12.3121 
19.2059 2.57938 12.284 
23.8799 -3.82143 12.8161 
20.5936 -1.73798 12.8738 
19.8689 -0.334695 13.0153 
17.8603 0.978586 12.7399 
19.1824 0.981079 13.0149 
19.7889 2.47798 12.8826 
19.9692 4.38523 12.7967 
20.6972 -1.74837 13.6109 
19.8903 -0.401755 13.7469 
20.9186 -0.472982 14.4537 
22.6674 4.69158 14.4729 
20.4011 -2.18663 15.3046 
22.6976 -2.27337 15.2136 
20.6304 -0.408142 14.9728 
19.5443 0.909398 15.1252 
21.5961 4.42638 14.9675 
19.9533 -0.465845 15.5409 
18.577 0.492938 15.6968 
18.7615 2.28829 15.5887 
19.3227 3.80267 15.6001 
22.9653 6.54929 15.7065 
20.4205 -0.934886 16.4531 
19.5111 0.618852 16.5628 
19.4101 1.8867 16.6643 
20.1231 3.87907 16.4685 
20.2516 -0.812638 16.9967 
19.4942 1.90229 17.1435 
21.298 -0.949892 17.9218 
20.5766 0.49042 17.8081 
23.3749 -2.55765 18.6761 
20.0207 0.43362 18.5769 
20.6023 0.341737 18.2371 
19.7743 1.8676 18.4506 
19.912 3.71168 18.7776 
20.5137 3.77992 18.4047 
21.2708 5.42363 18.8545 
19.5138 1.73809 20.0956 
20.0635 3.36535 19.9312 
22.2266 -1.48639 21.6399 
20.5926 0.324213 21.5062 
20.6583 3.29375 21.6086 
20.8579 -1.50859 22.0735 
21.2195 -1.7041 21.943 
19.3319 -0.0930292 22.1966 
20.1547 0.131271 22.038 
19.041 1.1282 22.1628 
19.7896 1.56695 21.9685 
19.3682 3.05823 22.2032 
19.9299 3.10691 22.1367 
19.799 4.57517 22.3014 
20.7953 4.70922 22.1949 
21.4117 5.25038 22.1962 
22.7862 5.75075 22.2255 
18.3335 1.12135 22.6515 
20.1936 -1.89388 1.16709 
16.3879 1.0317 1.11094 
19.2538 2.5651 1.22981 
19.477 4.00583 1.12629 
22.9093 8.58637 1.27333 
20.3917 -2.0382 1.70933 
19.3379 2.42405 1.63756 
24.6152 -2.69078 2.25692 
18.8312 0.971046 2.41188 
20.8382 4.04661 2.71331 
20.8386 -0.762042 3.20479 
20.0277 0.798322 3.91984 
22.7307 -2.94729 5.34326 
19.1125 0.455752 5.39818 
18.8338 3.38075 5.17289 
19.7003 3.58862 5.43749 
18.8644 4.98657 5.309 
21.9432 5.77115 5.34827 
22.7696 -2.93904 5.98851 
23.5395 -3.10404 6.22599 
19.7672 -0.980322 5.98284 
19.2895 0.432753 6.01809 
18.879 1.827 6.05175 
23.9296 -3.15027 6.71672 
20.7817 0.322475 6.81844 
20.0402 1.84167 6.69842 
21.0987 -1.23511 7.33989 
20.0245 1.80009 7.41767 
20.5464 3.43708 7.27022 
20.3674 -1.30014 8.16979 
19.1746 1.71919 8.3212 
21.8647 5.36589 8.18095 
19.6331 -2.89957 9.014 
19.36 -1.21964 8.84443 
18.4376 0.173728 8.73703 
19.2409 4.54134 8.99819 
20.4224 -1.46365 9.19476 
23.0008 7.40008 9.34953 
19.087 1.27605 10.0996 
23.3051 -1.86353 10.9379 
20.0206 1.24802 10.9263 
22.9206 -1.82358 11.4582 
20.7533 -0.180071 11.2636 
19.1345 1.12433 11.8378 
19.992 1.24288 11.3737 
19.8381 2.65257 11.5951 
23.3933 -3.79895 12.4239 
19.0836 -0.279281 12.1548 
20.0279 -0.345922 12.5507 
19.2822 2.60593 12.2626 
20.5696 -1.81911 12.8928 
19.8264 2.55273 12.9252 
20.0304 4.33268 12.765 
22.997 6.87346 12.6461 
20.8149 -1.86753 13.5193 
20.1801 0.967088 14.4134 
20.5744 2.53208 14.4344 
20.546 -0.51301 14.9834 
21.6292 4.42225 14.9435 
19.2156 -0.784574 15.6708 
20.0345 -0.570618 15.4734 
19.2479 0.78943 15.44 
18.7927 2.1995 15.5621 
19.4261 3.78815 15.5446 
23.0105 6.57032 15.7468 
20.3698 -0.866459 16.4424 
19.5545 0.593015 16.9829 
20.0852 3.77538 17.1093 
20.5401 0.535723 17.7619 
20.4037 2.0347 17.9572 
21.4069 3.92939 18.0709 
21.6015 -2.63187 18.7709 
23.2898 -2.6661 18.7197 
20.5667 0.429364 18.243 
18.8355 1.75494 18.8697 
20.0447 3.62185 18.7395 
20.5045 3.72524 18.3462 
20.6289 -2.6379 18.9993 
19.3559 4.79324 19.2416 
19.9775 5.06959 18.9991 
20.6512 -1.20417 19.984 
20.0817 3.31229 20.3752 
20.5363 3.25532 21.62 
21.0056 3.42596 21.3761 
23.838 -3.18914 22.2114 
21.2323 -1.57077 21.8508 
18.9805 1.20579 22.1699 
19.3303 2.95184 22.1926 
20.062 3.10136 22.1244 
20.7283 4.79886 22.2081 
22.9361 5.75162 22.2233 
22.9984 6.75107 1.22415 
19.5338 -0.151685 1.59054 
18.8313 1.23557 1.62935 
19.4114 2.58877 1.6921 
23.6776 -2.18651 2.38039 
18.7371 1.1126 2.37648 
19.6852 4.05787 2.74939 
19.597 4.21661 2.28118 
22.2088 4.77555 2.33468 
23.834 -2.18757 3.09486 
20.6821 -0.246448 3.18606 
19.1601 2.43125 2.95351 
20.6141 3.09902 3.08011 
20.6496 -0.298749 3.78751 
18.7012 -0.3057 5.10531 
19.2569 -0.390382 5.24646 
17.8042 0.88811 5.37785 
19.0372 0.836697 5.48374 
18.7823 2.49891 5.22817 
19.1756 2.32641 5.37812 
19.082 5.20548 5.34139 
19.5268 -0.422221 6.18453 
19.1608 2.26078 5.94508 
23.0504 6.52008 5.75396 
21.1916 -2.30306 6.61191 
24.7027 -2.64136 6.62836 
20.8735 -0.77045 6.8208 
18.9995 0.767535 6.62095 
19.1229 2.21885 6.58496 
20.8856 -0.795512 7.34875 
20.0622 0.813062 7.35076 
20.2717 2.24491 7.48493 
20.3409 2.42351 7.35568 
20.6332 -1.05689 7.96692 
19.3744 0.374597 8.27648 
19.2887 1.88765 8.30811 
19.8002 3.75958 8.24851 
20.6285 3.94024 7.80035 
19.4944 -2.36911 8.79437 
19.4569 -0.988872 8.73726 
19.2272 0.308595 9.04051 
17.9707 1.63132 8.92793 
19.1133 3.23407 8.80546 
19.0887 4.69738 9.01197 
23.6624 -2.9012 9.35994 
20.0328 -2.45239 9.18853 
20.3189 -0.990026 9.23499 
19.4186 0.419145 9.49401 
19.1911 1.77669 9.43083 
19.9313 3.738 9.36572 
19.2736 5.03062 9.41472 
19.3854 0.376078 10.1524 
22.7952 5.87382 10.1795 
20.4789 0.287388 10.8146 
20.1415 1.8594 10.7774 
23.3026 5.91196 10.6626 
20.563 0.270563 11.3051 
20.1172 1.80081 11.3956 
20.5599 3.43173 11.6139 
23.5269 -3.15764 12.0528 
19.8304 -2.6548 12.3729 
18.7349 0.266841 12.193 
19.7142 3.20106 12.2722 
20.5024 -1.25452 12.9195 
19.4594 0.269017 13.0682 
19.2987 1.60053 12.9876 
19.832 4.50552 12.7176 
20.3767 -1.36801 13.5761 
20.17 1.59065 14.4206 
20.7943 -1.57092 15.1345 
20.0206 -0.184958 15.3396 
20.637 -0.27026 15.0419 
19.4897 1.11154 15.0396 
20.4995 3.17922 14.8864 
22.594 5.276 15.0232 
22.6671 -3.22244 15.6246 
19.2394 1.03757 15.4314 
18.8082 2.42307 15.5454 
23.0186 7.18897 15.8435 
20.0515 2.9355 16.3356 
22.9882 7.17383 16.5005 
20.6755 -1.63969 16.9443 
19.9994 -0.293779 16.9849 
19.3155 1.04928 17.2315 
19.7308 2.61004 17.1952 
20.7094 4.53684 17.0276 
20.933 -0.257784 17.8519 
20.2235 1.11859 18.0052 
20.7829 2.61921 18.0485 
20.026 -1.69831 18.8455 
21.5049 -1.77186 18.5481 
22.659 -1.80732 18.5289 
20.5723 -0.373749 18.405 
19.3456 0.964136 18.7567 
18.8593 2.38167 18.8942 
19.8885 2.48022 18.5286 
19.9697 4.29399 18.8238 
21.4143 4.6576 18.7215 
22.0711 4.62453 18.3276 
23.9227 -3.9507 19.794 
20.1374 -0.416053 20.0438 
20.2012 3.91196 19.9951 
23.0402 6.82915 19.74 
20.3291 4.09903 20.5728 
20.8668 -0.396789 21.5053 
21.2009 -0.509207 21.3522 
20.4475 0.92332 21.4316 
20.7565 2.4236 21.4394 
23.6259 -2.32055 22.0067 
19.7541 -0.862423 22.2217 
19.1946 0.554891 22.1732 
19.93 3.86598 22.1924 
22.9953 6.53856 22.7387 
22.2927 2.44281 24.8589 
24.5439 0.419153 30.6326 
21.498 -2.58534 1.07916 
22.5254 -2.71285 1.21839 
19.8438 -0.892942 1.26422 
19.1248 0.291427 1.17186 
18.366 5.79413 1.06119 
22.9107 7.63452 1.0613 
22.8722 8.60789 1.12251 
22.9234 -2.77561 1.57989 
19.8616 -0.943473 1.84462 
19.3143 0.406353 1.66486 
22.7242 -2.5102 2.2694 
18.9429 1.77103 2.5056 
19.3818 3.26853 2.44068 
20.5466 5.11237 2.34554 
23.6485 5.94199 2.42951 
22.6333 -2.83614 2.943 
20.1682 0.486977 3.00784 
20.4263 0.251555 3.30339 
20.5287 3.29366 3.16034 
20.6865 5.09936 2.89371 
21.0336 -1.15813 3.72139 
20.2206 0.428068 3.81198 
22.1101 -3.01549 5.23853 
23.4229 -3.07963 5.43568 
18.4496 0.152677 5.20655 
18.0135 1.54841 5.2998 
19.2668 3.19409 5.31064 
19.8057 -1.13309 6.00165 
19.3195 3.16843 5.97941 
19.8013 4.54975 5.98852 
20.0538 -1.2521 6.64696 
20.829 0.231018 6.82882 
19.3997 3.07118 6.55681 
24.1083 5.78489 6.56069 
21.625 -1.4348 7.31039 
19.9413 0.112371 7.99393 
19.091 1.25903 8.05832 
19.1262 -0.134509 8.79317 
18.5352 2.63553 8.81179 
19.1983 2.51141 8.92505 
18.8432 3.91262 8.79661 
19.7542 4.42019 8.75508 
22.8885 7.18329 8.95628 
19.6605 -2.93871 9.30485 
23.8391 -3.25692 9.36525 
22.9984 7.28782 9.38712 
20.4126 -1.56216 10.1007 
22.9231 -1.69644 10.791 
20.7807 -0.13799 10.8182 
19.024 1.23086 10.6433 
19.9742 1.25125 11.0525 
20.5582 2.96545 10.85 
19.2066 1.13438 11.7147 
20.0557 2.71236 11.6763 
20.6017 3.15571 11.4608 
20.1425 4.35119 11.8259 
23.5066 -3.70887 12.4847 
20.4579 -1.74287 11.9917 
19.8502 -0.305195 12.2499 
18.0251 0.974696 12.3014 
18.384 1.04626 12.124 
18.775 2.3624 12.2176 
18.0032 0.944784 12.7127 
19.4124 2.40502 13.169 
19.8225 2.58544 12.7804 
19.9856 4.11871 13.1892 
20.1541 1.01457 14.4033 
20.6827 -1.75808 15.176 
21.8514 -1.82311 14.9848 
20.7614 -0.340828 14.9745 
20.1454 1.02854 14.8269 
20.5158 2.53659 15.0151 
20.3845 4.0225 15.1795 
23.1554 5.19751 14.8838 
19.8092 -1.9395 15.6466 
19.1928 -0.476457 15.5727 
18.3864 0.933315 15.6885 
19.4356 3.81574 15.5279 
20.0611 3.88265 16.6044 
23.0045 6.64891 16.1922 
19.5788 2.2195 17.2626 
20.5898 -2.33651 18.8044 
21.7948 -2.23696 18.7546 
22.9907 -2.20659 18.5589 
23.4263 -2.46328 18.4989 
19.9087 -0.891195 18.7498 
20.5634 -0.518718 18.3914 
19.0959 0.462449 18.8296 
20.4882 3.83885 18.3816 
21.4618 4.46228 18.5005 
19.9613 -2.38541 19.1649 
20.6447 -0.881539 19.4597 
18.6456 1.81056 18.9689 
19.323 3.71914 18.9648 
22.7675 6.48793 19.183 
19.5499 1.88353 20.0496 
20.1513 3.82773 19.9569 
21.2424 -0.986554 21.6072 
20.588 0.428199 21.4985 
20.6568 2.29558 21.5438 
22.1715 -2.47468 22.1352 
23.597 -2.42292 22.0617 
24.8783 -2.4951 22.1592 
19.9665 0.477908 21.9596 
19.2363 1.85215 22.1766 
19.8543 3.68425 22.1531 
22.8358 5.98837 22.2843 
20.1265 -2.42034 22.7963 
19.5358 -2.93469 1.26913 
23.827 -3.20014 1.24296 
18.9848 1.77131 1.22984 
22.9083 7.96337 1.0503 
19.5454 -2.85648 1.8464 
20.1188 -1.58145 2.49776 
19.3759 -0.168937 2.38016 
19.0891 0.389582 2.44505 
18.948 1.74158 2.61882 
20.6352 5.1345 2.46272 
23.9808 -3.15031 2.99113 
20.8758 -0.83094 3.1018 
19.9844 1.82682 3.22675 
19.4139 3.16703 2.92068 
23.5529 6.06033 2.95311 
21.8205 -1.53525 3.81606 
20.6262 -0.198533 3.70949 
19.9695 1.81061 3.76728 
20.502 3.44578 3.85039 
19.5647 -2.9988 5.36548 
23.4199 -3.18705 5.39774 
19.9477 -1.68792 5.33081 
19.1318 -1.03916 5.14483 
19.9251 -1.0415 5.37461 
19.4245 -0.299712 5.31439 
18.5055 0.215571 5.21716 
19.313 4.59298 5.36385 
19.6299 -2.99121 5.69519 
20.4021 -1.80494 5.73078 
19.9389 -1.03979 5.96771 
19.4807 -0.297405 6.12127 
19.8516 4.71624 5.90435 
20.8555 5.13167 6.61737 
22.7796 -1.69404 7.33077 
20.212 0.474478 7.31377 
20.4408 -1.57382 8.25736 
20.8132 -1.03716 7.90884 
19.9692 -0.289002 8.1222 
19.8065 0.220594 8.01004 
19.2419 1.76528 8.19817 
19.8789 3.20463 8.07838 
22.785 5.83542 8.16327 
20.8567 -3.12389 8.72351 
19.4578 -1.03322 8.80628 
19.8893 -1.01028 8.73332 
19.1675 -0.255034 8.73175 
18.6801 0.206318 8.73847 
17.9409 1.24881 8.86464 
18.4548 1.5619 8.72521 
20.3486 -1.02805 9.24706 
19.839 -0.276358 9.45082 
19.3653 0.335631 9.62213 
19.783 4.57806 9.42263 
20.1207 -1.00933 10.1981 
21.1689 5.13388 9.9022 
20.818 -0.21483 10.8416 
21.4937 -1.87375 11.5826 
20.4966 0.298693 11.4142 
20.1115 1.76934 11.4701 
20.6224 3.26233 11.5562 
22.7935 -3.43782 12.1788 
20.3015 -1.13321 11.9157 
19.9022 -0.321871 12.0757 
18.6795 0.196059 12.1872 
19.7595 0.199971 11.9546 
18.3501 1.50658 12.2581 
19.2147 1.7533 12.053 
19.4353 3.09743 12.2038 
19.441 4.59824 12.2943 
22.7607 6.00598 12.1946 
23.8773 -3.70956 12.8413 
19.1943 1.55805 13.0726 
20.2202 -1.04518 13.7564 
22.0433 5.41026 13.7159 
20.8511 -0.392722 14.402 
20.81 0.382592 14.4005 
20.6986 3.27675 14.4659 
21.4634 -1.8302 15.0393 
23.3273 -1.96341 14.9265 
19.8182 0.308725 15.1606 
20.7044 0.377199 14.8886 
19.4885 1.56853 15.1555 
23.8933 -3.65973 15.5978 
19.9275 -1.88799 15.5803 
19.8331 -1.14606 15.5259 
19.3095 0.251799 15.483 
19.1596 1.66344 15.4373 
18.9993 2.93649 15.5365 
19.8279 4.5163 15.607 
23.8553 -3.65917 16.1793 
20.0104 -0.421766 16.5359 
19.778 0.256033 16.4251 
19.7426 0.194185 17.0184 
20.6979 -1.72834 18.6639 
21.845 -1.95599 18.6614 
20.0152 -0.338261 18.6936 
19.1905 0.252147 18.8084 
20.0246 0.27472 18.6031 
20.5191 0.30242 18.2716 
19.183 1.1736 18.7683 
19.8755 1.67026 18.4523 
20.5865 3.36979 18.393 
20.6322 4.52138 18.6231 
21.3951 5.32006 18.8473 
22.7747 5.79883 18.819 
19.9861 -1.92919 18.9519 
19.4552 4.62255 19.1018 
20.1322 -0.464256 19.8961 
20.0701 3.15908 19.8299 
20.5564 -1.12046 20.5636 
20.7807 0.291071 21.4966 
20.5272 3.19787 21.6188 
20.6061 -1.75648 22.1927 
21.173 -1.79342 21.9827 
22.123 -1.89019 21.995 
23.1656 -2.05079 21.9646 
20.0651 -1.14568 22.1896 
19.9657 -0.410379 22.1281 
20.8002 4.83222 22.1935 
21.9881 5.31499 22.1484 
20.4319 -2.03925 22.9936 
23.9819 1.94898 29.1633 
20.0694 -2.36582 1.17982 
16.0341 0.866655 1.21809 
17.2693 1.09021 1.26152 
19.3325 3.14209 1.1501 
20.1731 -2.34203 1.66024 
20.45 -2.21495 1.7909 
19.2238 0.339003 1.74565 
19.4595 3.15845 1.66133 
19.7401 4.71414 1.64898 
24.7176 -2.47998 2.20467 
25.3635 -2.33354 2.49742 
19.8031 -0.943422 2.39094 
19.3375 3.11654 2.41453 
20.5063 3.42292 2.66299 
19.7878 4.65456 2.30093 
20.5933 5.09075 2.45133 
20.636 -2.18354 3.01558 
25.805 -2.26192 3.05413 
19.8546 -0.966906 2.87487 
19.9857 1.83184 3.12984 
20.5651 5.05528 2.9461 
22.0871 5.24387 3.26324 
20.5071 3.45889 3.76273 
19.8444 3.19502 4.36577 
20.001 -2.40721 5.45519 
18.6301 0.243537 5.14052 
17.9116 1.13513 5.18659 
18.6072 2.94142 5.15153 
20.693 -2.19872 6.09483 
21.4777 -2.36182 5.85654 
19.8351 -0.974153 5.96698 
19.1576 0.302794 6.01339 
19.4543 3.16681 6.05581 
19.7429 4.7156 5.77669 
21.9299 5.70816 6.22654 
20.6694 3.69831 6.83156 
20.047 1.85851 7.32819 
19.4561 0.401703 8.16298 
20.4553 3.43231 7.8248 
20.5129 -2.32398 8.48629 
19.084 0.323173 8.76384 
18.6288 1.59159 8.59559 
19.2394 3.12755 8.58284 
21.1782 -2.26178 9.73003 
19.3953 0.395408 9.53047 
19.203 1.71166 9.48651 
19.1659 1.71602 10.2448 
19.6557 3.26925 10.173 
19.3639 0.429931 10.5054 
20.2729 0.604268 10.8875 
20.1491 1.89049 10.9301 
22.5904 -2.22827 11.7141 
19.4496 1.76333 11.8274 
20.1514 1.88556 11.4642 
20.6066 3.58159 11.4411 
21.1647 -2.28837 12.0089 
19.3256 -0.978266 12.2011 
19.07 0.284543 12.2007 
18.5371 1.57892 12.1666 
18.842 3.00628 12.1823 
20.0887 -2.43497 12.8007 
20.0441 -0.970781 13.1954 
20.4479 -0.996399 12.8306 
20.5797 0.510242 14.5191 
20.3027 2.0732 14.695 
20.8125 3.64639 14.4387 
20.4754 -0.961986 15.1417 
19.8497 0.480461 15.175 
19.9667 1.81622 14.8994 
20.221 3.76113 15.2884 
19.9488 -0.965831 15.4876 
18.5812 0.333495 15.7346 
19.2065 3.11346 15.499 
20.1551 -0.809262 16.5754 
19.952 3.25679 16.5716 
20.2481 -0.796369 16.9802 
20.059 3.68426 17.2017 
20.6042 -2.23174 18.7998 
20.5325 -0.96187 18.6418 
20.7251 -0.58669 18.3711 
19.3376 0.40004 18.8055 
19.1982 1.887 18.7889 
19.8958 1.85133 18.5453 
20.0916 2.24005 18.3889 
19.8887 3.25008 18.6537 
19.671 1.87626 19.9774 
20.3664 3.77774 19.7244 
23.5124 -2.16436 21.6505 
21.2119 -0.562882 21.5501 
21.2207 3.91644 21.5315 
20.4882 -1.92678 22.2557 
22.061 -1.9947 22.0663 
20.0712 -0.931241 22.1569 
20.6861 -0.527393 21.9159 
19.7611 1.82 22.1 
19.9878 2.1871 21.8708 
19.4281 3.15482 22.211 
20.0638 3.68189 22.1729 
19.4659 4.92967 22.7534 
23.2018 1.19044 27.1896 
23.3619 1.18144 28.1602 
23.4771 1.05406 29.1586 
22.9785 1.16894 29.6661 
23.413 1.33267 31.4442 
23.2482 1.20712 32.3249 
23.187 1.27466 33.3977 
18.454 4.60569 0.647744 
17.7546 5.82065 0.657133 
20.138 -1.59172 1.1739 
18.7204 -0.527909 0.800065 
19.2805 -0.254056 1.07443 
18.8114 0.843366 1.15541 
19.3524 3.82279 1.07821 
18.8392 1.0071 1.83571 
22.6477 -2.89923 2.43128 
19.0731 2.26658 2.46753 
20.6432 2.57484 2.59435 
22.6591 5.22685 2.19931 
20.142 -1.53821 3.01209 
21.5493 -1.45105 3.01536 
20.6711 2.64979 3.17037 
24.0698 5.8787 2.90404 
20.0788 2.33456 3.98847 
20.6533 2.60356 3.60895 
19.8143 -0.222761 4.3996 
23.9956 -4.39692 5.2863 
19.3666 -1.67668 4.99967 
18.681 -0.401793 5.1115 
18.6797 1.98906 5.28559 
19.1534 5.15002 5.27541 
19.7141 -0.304115 5.74196 
18.8099 0.82965 6.06062 
19.4959 3.777 5.99268 
23.0062 7.2649 5.82325 
20.218 -1.59453 6.62026 
18.9932 0.785166 6.57782 
19.1069 2.17887 6.64846 
19.9796 0.967979 7.41673 
23.8667 -3.03463 8.18666 
19.1492 1.05727 8.06832 
19.4256 2.36963 8.20188 
22.1085 -3.1322 8.59947 
20.0176 -1.59933 8.73624 
18.6941 0.76773 8.73358 
19.155 3.6725 8.75396 
23.99 -4.45803 9.53135 
19.378 2.31952 9.44576 
19.224 5.06352 9.38206 
21.9629 -1.43911 10.9272 
20.8098 -0.18541 10.94 
20.0069 1.15676 11.0088 
19.3511 2.32276 10.5114 
20.8011 2.60449 11.0159 
21.3243 -1.68667 11.5429 
22.5889 5.03834 11.5166 
19.7973 -2.89303 12.3409 
20.546 -2.86996 12.2034 
21.9797 -3.05115 12.1221 
19.2109 -0.380745 12.124 
18.5325 0.414459 12.214 
19.126 0.813967 11.98 
18.6049 1.84803 12.1893 
19.8589 3.84655 12.2035 
19.3874 2.31728 13.1049 
19.2052 5.05153 12.8142 
21.5787 -1.64278 14.9851 
19.5304 2.39538 15.3909 
19.723 2.35834 15.1672 
20.1889 3.87661 15.3438 
19.7836 -2.90421 16.0158 
21.2189 -2.89128 15.6288 
23.3613 -3.08494 15.5213 
24.8805 -2.9711 15.5331 
19.8191 -1.76355 15.5772 
19.2691 -0.447379 15.5286 
18.6592 1.86367 15.6046 
19.3529 3.7098 15.5134 
19.3391 5.03045 15.7741 
20.5406 -1.7097 16.3353 
19.3123 0.878773 16.5866 
19.6784 2.36685 16.4313 
19.408 0.905317 17.1433 
19.6437 2.37873 16.9701 
22.8109 -2.92748 18.8 
21.3043 -1.64353 18.4612 
21.9013 -1.69619 18.4714 
19.8435 -0.353334 18.7113 
20.6088 -0.338974 18.4154 
18.7815 0.881832 18.8803 
19.3218 1.0331 18.7693 
19.2968 2.17647 18.7825 
20.7795 4.41918 18.5809 
21.4985 4.5232 18.3968 
20.1404 -0.376507 20.0675 
20.3654 -0.399478 19.6985 
20.5458 2.42418 21.5845 
23.2113 -2.95406 22.2299 
20.558 -1.6877 22.1381 
19.3622 -0.242685 22.2348 
20.0185 -0.358271 22.1333 
18.9886 1.01033 22.1564 
19.1821 2.18081 22.2295 
20.0306 2.3167 21.9453 
23.2603 1.75857 27.8096 
23.6065 0.259592 30.9968 
22.718 1.81027 31.2004 
22.6148 -3.91398 0.685063 
19.0687 -3.66554 1.19547 
20.0132 -2.45614 1.24027 
19.5206 -1.13095 0.9872 
19.9906 -1.08093 1.24371 
18.767 2.34904 0.988603 
19.6902 4.02402 1.24543 
18.8047 5.31538 1.09115 
17.792 6.32945 1.28563 
21.8569 -2.5387 1.71352 
18.8185 1.04771 1.77898 
19.8174 4.51215 1.6134 
19.8977 -1.15455 2.39872 
19.7672 4.44751 2.45399 
19.0536 5.40771 2.12409 
23.667 6.03459 2.39284 
21.3976 -2.41745 3.05504 
25.6666 -2.2726 3.0344 
18.7919 1.10164 2.96813 
19.8631 1.26131 3.16002 
19.8179 4.36558 2.97453 
20.4511 0.15551 3.7628 
19.8742 1.18614 3.82282 
19.4311 -1.13971 4.84532 
19.852 0.203374 4.30687 
19.0726 1.02702 4.47063 
19.9752 4.44365 4.51006 
23.8717 -3.9473 5.30803 
19.4503 -2.43797 5.27377 
18.5829 -0.32576 5.07717 
17.8899 0.966493 5.15096 
18.5723 0.888212 5.39476 
19.3448 2.49524 5.43339 
18.7759 3.83118 5.16428 
19.9791 -2.51655 5.64484 
21.5232 -2.40904 6.03937 
22.1171 -2.53481 5.86815 
19.3816 -0.207962 6.0845 
19.67 -0.156742 5.67237 
19.0307 5.25161 5.74655 
23.0014 7.74742 6.23805 
25.4245 -2.29104 6.75895 
19.9893 -1.14873 6.59189 
18.8175 1.1095 6.60711 
19.2027 2.43605 6.58934 
19.8311 4.3991 6.64575 
23.5393 6.02188 6.73839 
19.9507 1.55407 7.34793 
20.4568 3.1197 7.32365 
22.0468 -2.46083 8.3321 
23.4715 -2.37548 7.94569 
20.1227 -1.05623 8.24437 
19.3977 2.49148 8.28886 
19.9489 3.03327 8.01829 
20.0187 4.4097 8.18668 
23.4166 -3.81165 8.96728 
19.7923 -2.46468 8.84999 
19.2948 -1.14583 8.73952 
18.5812 -0.25661 8.75849 
17.909 0.986926 8.89018 
18.3766 2.40353 8.77701 
18.7874 3.83699 8.78597 
21.765 -2.43609 9.71531 
20.0637 -1.06346 9.57679 
18.7437 1.18032 9.42806 
19.3472 2.45714 9.5177 
19.025 5.27349 9.42261 
19.441 2.57357 10.1876 
20.0286 4.37408 10.1548 
21.1002 -1.02928 11.3814 
19.1984 1.1301 11.7185 
20.5826 3.16556 11.5147 
22.03 5.25541 11.8089 
23.4974 -3.83201 12.3858 
19.3911 -0.193094 12.0452 
19.1948 2.56217 12.1435 
19.1012 3.96022 12.1997 
20.0256 4.41136 11.94 
19.9992 4.37312 12.8083 
20.2095 -1.05616 13.5339 
21.1812 -0.977199 14.5002 
19.1086 1.16738 14.1353 
23.3478 -2.30571 15.0834 
19.7155 2.55642 15.2813 
19.9176 2.9526 15.1366 
21.2607 -2.31366 15.4718 
21.9948 -2.51007 15.4394 
19.394 -0.227676 15.492 
19.1023 2.31981 15.6158 
22.7806 6.02736 15.4973 
23.8747 -3.82246 16.1994 
19.7529 0.147208 16.4782 
20.4681 -1.16433 17.2421 
19.7139 2.58248 16.9635 
20.7236 0.319299 18.0093 
21.4115 -2.40654 18.793 
20.009 -1.04231 18.7585 
20.6365 -1.0378 18.6203 
21.1572 -1.01888 18.266 
19.3145 -0.288155 18.7996 
20.0077 0.218644 18.5616 
19.2324 2.36449 18.7711 
22.5984 5.38442 18.6549 
23.8588 6.05946 18.8453 
20.5598 -2.55182 18.9732 
19.8783 0.13863 19.9176 
19.7927 0.322347 20.5474 
19.4655 1.07683 20.4811 
19.9923 3.01127 20.5323 
21.357 -2.4135 22.1957 
22.214 -2.42433 22.1273 
23.4479 -2.37425 22.1187 
19.9334 -1.07732 22.2261 
20.7334 -1.12408 22.0167 
19.4007 -0.125571 22.197 
19.3439 2.43426 22.2016 
21.4872 5.16224 22.1624 
23.3446 5.88759 22.2092 
18.5158 1.11329 22.5541 
22.7613 0.792861 26.1165 
23.9512 -4.01629 1.31662 
16.3209 0.977426 1.25411 
18.0433 6.05505 1.11689 
22.9459 7.3956 1.1192 
20.3249 -1.60688 1.61368 
19.7676 -0.362576 1.74458 
19.2844 2.32452 1.6195 
19.1439 5.21974 1.6983 
23.9418 5.84371 2.603 
21.1542 -1.26805 3.8047 
20.5824 -0.130942 3.83361 
19.026 -0.36739 4.84148 
19.3356 1.00069 4.3547 
19.5 -2.61 5.26366 
22.6596 -2.64408 5.48516 
19.4493 -1.62285 5.10698 
20.3913 -1.54737 5.5136 
18.4638 0.479629 5.12189 
19.3027 2.35746 5.42806 
18.5771 3.10981 5.09557 
19.1374 3.64136 5.24422 
22.8809 7.39743 5.43011 
19.8591 -2.64013 5.62533 
21.9317 -2.57554 6.00853 
18.8096 0.871698 5.95778 
19.0728 2.21261 6.01308 
19.8337 3.99789 5.73071 
22.1721 -2.61139 6.4976 
19.5276 -0.245926 6.55691 
18.988 0.803304 6.53718 
23.6224 5.97226 6.68103 
20.4067 2.63793 7.37304 
20.6278 -0.247625 7.81235 
23.3195 -3.89223 8.87873 
19.7767 -2.63116 8.83484 
19.4554 -1.58503 8.72597 
20.0348 -1.51684 8.88111 
18.0081 1.73427 8.89454 
18.6306 1.80044 8.58189 
19.2125 3.68309 8.78416 
18.875 5.17894 9.03724 
20.431 -1.23404 9.33861 
22.6549 -2.61351 10.0751 
19.0888 0.968455 10.25 
19.9122 4.02298 10.1647 
21.2134 -1.15303 10.8542 
19.9872 1.17583 11.0321 
20.6324 3.02154 10.8968 
23.3237 -2.51553 11.5737 
20.5762 -1.21897 11.7117 
20.0823 -0.1767 11.7967 
20.5526 0.131511 11.4606 
19.9588 1.16592 11.4193 
19.539 2.40223 11.8462 
20.4691 2.65402 11.5556 
20.6228 3.02502 11.389 
21.9521 5.16212 11.7098 
21.1653 -2.42914 12.0355 
22.5887 -2.43503 11.9359 
19.5583 -1.60361 12.1846 
18.6308 0.932838 12.0756 
18.7697 2.23963 12.152 
19.7513 3.8944 12.117 
19.1522 5.14786 12.4082 
20.1404 -1.15838 13.1595 
19.2057 1.02007 13.0548 
19.1429 5.12609 12.8785 
19.796 -0.213292 13.6728 
20.0441 4.08807 13.5992 
21.2494 -1.07065 14.4566 
20.6578 3.09582 14.4869 
19.9909 3.97545 14.014 
24.1008 -2.46264 15.0284 
20.6165 -1.16668 15.1189 
20.6688 0.194807 15.0656 
19.9091 1.10945 14.9043 
19.9193 2.64003 15.2804 
23.6008 -3.8123 15.8224 
20.0131 -2.49734 15.7317 
20.6342 -2.6014 15.634 
21.4204 -2.40249 15.4654 
19.5673 -1.52011 15.5995 
19.2433 2.37093 15.5147 
19.2778 3.82922 15.5346 
20.0002 4.06582 15.4249 
20.023 -2.46242 16.1888 
20.468 -1.20271 16.4981 
20.0387 4.38454 16.4603 
20.4869 -1.20606 17.1329 
21.381 -1.01643 17.9814 
23.921 -3.8338 18.8662 
20.7636 -2.3594 18.8322 
22.7568 -2.26298 18.6237 
19.9363 -1.18032 18.777 
20.1037 0.124921 18.5822 
19.964 1.25161 18.2988 
19.1009 2.33385 18.7922 
20.6365 3.18512 18.3288 
20.7833 4.60928 18.7479 
22.0477 5.08257 18.6134 
20.0804 -2.48227 19.1738 
19.3588 3.82024 18.9453 
20.5613 -1.18873 19.9209 
20.0028 0.0598039 19.9648 
19.7327 2.60952 19.9077 
19.8611 1.15473 21.611 
20.6996 3.1334 21.6077 
22.0582 -2.39749 22.1438 
20.0468 -1.15039 22.2076 
19.9634 0.153768 22.108 
18.8247 1.06107 22.2321 
19.1546 1.11693 21.9964 
19.2701 2.44083 22.1898 
19.9687 2.52776 22.0416 
20.3552 3.10409 21.8791 
19.516 3.87215 22.3406 
19.9846 4.3849 22.1855 
20.4681 -2.3893 22.5823 
23.5712 1.09897 28.3555 
19.4063 -2.50575 0.763251 
21.356 -2.38559 1.23788 
19.9432 -1.21587 1.19285 
18.8208 0.634664 1.11308 
17.0353 0.996798 1.20539 
18.5986 1.80129 1.02716 
19.2938 5.0358 1.20382 
18.3824 5.83098 1.18576 
22.9094 7.4246 1.25036 
21.5602 -2.36598 1.86417 
19.0599 0.795126 1.6671 
19.7374 3.8113 1.57849 
20.8491 -2.26515 2.41702 
19.9329 -1.23457 2.44214 
20.9643 -1.00244 2.65585 
20.6237 3.1496 2.73075 
19.4948 3.70342 2.2745 
23.5285 5.95693 2.38057 
20.814 -2.23358 2.9127 
20.6091 3.01716 3.24548 
19.5929 3.76552 2.96915 
23.2268 -1.97319 3.82463 
20.5722 3.06056 3.79742 
19.9728 -1.14913 4.63001 
18.6176 0.428749 4.86367 
23.4847 -3.21385 5.42394 
18.3761 0.530046 5.19649 
19.2017 2.2697 5.39334 
19.0858 3.58144 5.2266 
20.7866 -2.26523 6.12336 
19.9496 -1.21093 6.02661 
19.5136 3.81444 5.99628 
21.2849 -2.32491 6.58074 
20.0218 -1.19717 6.60202 
19.9057 1.13474 6.8194 
23.3886 -1.99985 7.32696 
20.4739 2.99474 7.39369 
21.95 -2.37043 8.22049 
21.0569 -1.108 7.77642 
19.7673 -0.176042 8.13897 
19.1294 0.995983 8.13397 
19.4807 2.45793 8.15094 
23.5339 -3.34939 8.89575 
18.7379 0.80904 8.55245 
19.1292 2.39718 8.6822 
18.7299 3.66877 8.78437 
19.7043 4.05426 8.72853 
20.4269 -1.19787 9.31318 
19.93 4.33259 9.48081 
21.5217 -2.22649 10.1681 
20.2091 -1.17195 10.2226 
19.4171 2.50469 10.2181 
19.9864 1.28161 10.9584 
22.1023 -2.16087 11.6962 
23.6564 -1.98236 11.3612 
19.8975 0.140032 11.6111 
20.6011 -2.53809 12.0895 
21.9445 -2.31013 11.9582 
19.357 -1.17958 12.195 
19.9682 -1.23589 12.1015 
19.7749 -0.18719 12.0099 
18.5659 0.886444 12.087 
18.6219 2.1931 12.1775 
22.0766 5.95487 12.1095 
19.5637 -0.0552526 13.1983 
19.7312 2.65894 12.9044 
21.9883 -2.31844 13.8192 
22.2892 -2.20195 15.3654 
23.5253 -1.99968 14.9176 
19.9198 0.179406 15.1118 
20.7082 0.256879 15.0074 
19.2804 1.17202 15.149 
23.4005 -3.72821 15.7467 
24.6893 -3.56445 15.7378 
20.5762 -2.53734 15.5825 
21.4085 -2.37848 15.4657 
19.3263 -1.09129 15.5983 
19.1988 -0.204934 15.5058 
19.1365 2.45733 15.4942 
19.8143 3.13925 15.501 
19.4573 4.52661 15.6312 
20.5598 5.08823 15.51 
19.9819 -2.50991 16.1852 
20.3983 -1.18672 16.5127 
19.7982 0.095625 16.9845 
19.3012 1.20911 17.0896 
19.878 3.10592 17.0515 
21.5716 -2.3905 18.7707 
19.8463 -1.23562 18.7869 
19.3548 -0.162496 18.7804 
20.0527 0.134538 18.6128 
19.7845 1.60603 18.4868 
19.1756 2.5564 18.7726 
20.5836 5.09026 18.8799 
23.8768 -3.76234 19.412 
18.3962 0.958622 19.1145 
22.4538 6.27642 18.9923 
20.0738 1.6219 21.6025 
23.9529 -3.74224 22.2547 
21.192 -2.43737 22.2286 
21.9564 -2.37829 22.1503 
22.7757 -2.2718 22.1444 
19.1569 1.68087 22.2356 
19.4612 3.09301 22.1936 
23.9209 -3.70453 22.8036 
23.0404 1.09537 26.9917 
23.0401 1.21119 28.4453 
22.8614 1.24337 29.1942 
23.3645 1.26649 31.7197 
24.0491 -5.36428 1.16324 
16.413 0.929478 1.23127 
19.1879 2.56111 1.17182 
22.9523 7.22614 1.23677 
22.7478 -2.71491 1.59443 
20.4226 -1.78226 1.63732 
19.2776 0.183757 1.75405 
18.7943 1.06883 1.73868 
19.7977 4.59205 1.74318 
18.9911 5.60696 1.75932 
25.3077 -2.26481 2.3623 
20.332 -1.92992 2.58309 
26.2439 -1.98742 2.46577 
19.2033 0.236833 2.44653 
19.3312 2.96882 2.5306 
26.1863 -1.98813 3.03269 
18.7908 1.1415 3.06893 
21.6158 -1.46892 3.69488 
20.001 1.86425 3.77185 
20.6151 3.78801 3.83136 
19.9687 -0.448517 4.37641 
19.4482 -1.83186 5.06681 
18.4962 2.3717 5.13474 
19.2775 4.57608 5.19686 
22.5845 -2.67209 5.994 
20.152 -1.66326 6.04871 
19.8057 -0.989339 6.0119 
19.1428 0.278528 5.98958 
18.0072 1.04496 5.70306 
18.836 1.51844 6.13225 
22.9862 7.35521 5.73481 
26.1178 -1.93786 6.7479 
19.897 -0.955954 6.47852 
19.7454 -0.639975 6.6816 
20.0068 0.937117 6.90108 
20.1997 2.19505 6.84818 
21.0223 -0.209214 7.22174 
22.5335 -2.50601 8.20473 
20.5192 -1.61181 8.20349 
21.4334 -1.45211 7.82966 
19.9937 0.997082 7.7556 
20.1043 3.91202 8.07652 
23.0016 -3.81024 8.79623 
19.5754 -3.06296 8.9741 
19.6774 -2.97404 8.77991 
19.8996 -1.72762 8.82411 
19.2131 -0.99672 8.65198 
19.3627 -0.493823 8.77577 
17.9157 1.04058 8.84158 
18.697 1.66248 8.52224 
19.3741 3.27154 8.49287 
19.1307 4.72138 8.85658 
20.5016 -1.62059 9.49814 
19.3686 0.492697 9.48109 
17.6178 0.996958 9.31283 
22.5156 -2.55947 10.1524 
19.804 -0.383325 10.251 
19.2133 1.83668 10.2183 
19.8701 3.89201 10.1273 
21.4398 -1.23826 10.924 
20.7171 2.94274 11.0375 
23.3867 -2.39504 11.6402 
21.2558 -1.54483 11.5096 
19.4053 0.915426 11.6157 
19.7188 2.3556 11.7141 
20.6154 4.40496 11.5705 
21.965 -2.44664 12.0004 
19.9225 -1.67624 12.1229 
19.23 -0.944542 12.1962 
19.7197 -0.355425 11.9888 
18.5529 0.468919 12.1901 
19.1923 0.470618 12.0705 
18.5144 1.71989 12.1767 
19.1969 1.86971 12.0192 
19.1769 3.39052 12.1416 
19.9885 4.03203 12.0216 
20.5803 -1.57163 12.9746 
20.0672 4.3111 12.8215 
20.1782 4.3361 14.2376 
20.7918 0.138378 14.9913 
20.0048 2.66056 15.2308 
20.5942 3.04771 14.7913 
22.5775 -2.51869 15.4344 
19.1254 2.32132 15.4742 
21.6028 5.38395 15.4399 
20.5083 -1.57673 16.4448 
19.9944 -0.190026 16.5123 
19.6923 2.57525 16.6359 
19.9695 -0.217504 17.0926 
21.3088 -2.51287 18.8236 
21.8147 -2.41798 18.7476 
20.7231 -1.24704 18.5667 
21.3486 -1.06848 18.2531 
20.5117 -0.17241 18.3471 
19.2723 2.55057 18.7598 
20.4791 3.10554 18.3057 
18.7928 2.21009 18.9399 
20.5412 -1.24355 19.8998 
19.3853 1.00348 20.0216 
20.1105 -0.220399 20.397 
19.3925 1.13275 20.6523 
23.9865 -2.06705 21.5966 
20.7383 0.285445 21.6251 
20.1413 -1.26673 22.1851 
20.312 0.0945021 21.8322 
19.8271 1.57302 21.964 
18.4405 0.938954 22.5618 
23.0686 1.269 28.2728 
23.3296 1.69397 29.6452 
23.0634 1.38786 30.3772 
23.308 1.62605 33.169 
18.7457 -4.07369 1.24454 
17.9866 0.949031 1.00708 
18.4043 5.80107 1.1931 
19.5068 -0.446844 2.35062 
23.4411 6.07042 2.40564 
21.4678 -2.44683 3.05163 
23.401 -2.03333 3.09116 
21.1228 -1.28353 3.2255 
19.6744 -0.594597 2.9174 
19.4664 3.32199 2.97934 
23.34 -2.01107 3.84794 
20.1849 2.42055 3.98234 
19.9029 -0.435542 4.45095 
19.3559 0.483645 4.50907 
19.6766 -2.87986 5.32937 
23.4735 -3.32752 5.38069 
21.8661 -2.46921 5.42636 
19.1225 -0.879821 5.14328 
19.7646 -0.456887 5.43698 
18.2949 0.329621 5.17434 
17.7472 0.94569 5.13703 
19.227 3.23649 5.27959 
19.8446 3.98566 5.49345 
23.8696 -3.36853 5.76933 
20.3932 -1.62211 5.71973 
19.1269 0.496744 5.91166 
19.1714 5.17456 5.80696 
19.6849 -0.528639 6.583 
19.0073 1.82385 6.53282 
19.6621 3.89123 6.6166 
22.0633 -2.29767 8.11856 
19.1866 0.898978 8.2089 
19.8678 1.00863 7.82705 
19.4467 2.37207 8.1828 
20.4409 3.14059 7.80679 
23.4672 -3.38392 8.75678 
21.3332 -2.54025 8.46651 
18.7164 -0.480844 8.7338 
19.7243 -0.373862 9.05141 
19.8992 -2.6117 9.19888 
20.1681 -1.24817 9.56347 
20.3883 -1.26588 9.22882 
19.2697 2.34237 9.68298 
21.6192 -2.26302 10.2299 
20.2582 -1.27193 10.1361 
23.4614 -1.90995 11.0519 
23.5439 -3.24881 12.076 
19.7873 -1.55957 12.1014 
21.4135 5.77552 12.0835 
23.8271 -3.20632 12.7826 
20.1827 -1.21433 13.1273 
19.8814 2.97971 12.8375 
21.5698 -2.1787 13.8278 
20.7981 3.58663 14.512 
22.061 -2.16471 15.372 
21.9942 -1.947 15.0035 
19.987 1.54195 14.9079 
19.9496 3.02571 15.1321 
23.4653 -3.1895 15.5264 
19.9096 -1.21883 15.478 
18.9877 0.985282 15.4363 
19.2783 2.55829 15.4517 
19.8746 4.65273 15.5417 
21.3331 5.48532 15.4692 
22.9942 6.71961 15.7122 
20.2272 -0.951944 16.6356 
23.4638 -3.14482 18.8634 
21.3331 -2.33139 18.8019 
22.5123 -1.90573 18.4285 
19.9075 -1.1657 18.8086 
21.2533 -0.927114 18.2628 
18.7087 1.03202 18.7922 
20.3231 1.83716 18.2474 
19.1401 2.66725 18.8029 
19.8545 3.08342 18.6768 
18.4116 0.947085 19.2172 
20.5016 -1.08749 20.0011 
19.5282 4.82643 19.7014 
20.2182 3.74407 20.5084 
22.8938 -1.74568 21.6665 
20.5632 0.420773 21.6419 
23.4591 -3.07122 22.2356 
21.4402 -1.86774 22.0038 
19.9966 -1.15525 22.1749 
19.3006 0.360905 22.1774 
19.0852 1.57756 22.2039 
19.8971 3.28714 22.1129 
18.4408 1.12906 22.6056 
23.4486 2.00663 29.0361 
23.4459 2.40131 31.1887 
21.3505 -3.09698 0.823189 
19.1434 0.492102 1.20477 
17.1825 1.04505 1.25343 
23.9436 -3.68624 1.52788 
20.2135 -1.61653 1.85657 
19.8239 4.62192 1.75939 
19.0379 0.498738 2.39331 
21.2114 -1.32371 3.22691 
23.4697 -2.04891 3.86257 
21.2782 -2.50877 4.70975 
22.1174 -2.44758 5.45548 
19.1641 0.465429 5.40092 
19.2175 3.7192 5.25592 
23.9102 -3.71908 5.74744 
20.4241 -1.64569 5.7161 
17.8027 0.989491 5.69236 
19.1363 1.9435 5.90342 
19.9229 4.39503 5.76648 
22.0249 -2.56551 6.58565 
20.9476 -0.181203 6.84761 
19.1479 0.484946 6.59811 
18.9994 1.81045 6.57578 
20.4155 2.66883 6.89499 
21.4197 5.3413 6.72485 
23.5149 -2.02954 7.36123 
21.2649 -1.28391 7.41392 
20.9564 -0.154739 7.59464 
19.914 -0.438011 8.11672 
19.2739 1.80456 8.1512 
19.9813 3.91484 8.20472 
19.9169 -3.00237 8.78649 
23.525 -3.45335 8.76405 
21.4659 -2.57729 8.46596 
19.3564 -1.84071 8.76154 
20.0657 -1.75325 8.62918 
18.5303 0.996532 8.55629 
18.413 2.65611 8.73307 
23.8898 -3.34144 9.42447 
21.8648 -2.46426 9.72355 
22.7613 -2.42173 9.28852 
19.9917 -0.975377 9.58651 
17.8606 0.986425 9.29714 
19.085 1.61532 9.6252 
19.8407 3.77641 9.43996 
19.3805 0.410211 10.2296 
19.8353 3.78288 10.1071 
20.0952 0.990083 11.0064 
21.3258 -1.18556 11.3566 
20.0766 0.978814 11.4156 
20.6237 2.62814 11.4322 
20.4792 3.76447 11.4941 
25.0585 -3.1183 12.0907 
22.1229 -2.41004 11.9763 
19.869 -1.0175 12.0308 
19.2273 0.329678 12.0374 
19.0897 3.1031 12.1023 
19.9998 3.83328 11.9694 
19.4054 4.77753 12.3412 
20.0209 -0.391914 12.8923 
19.762 3.09024 12.9996 
22.109 -2.34239 13.7963 
19.4955 0.288469 13.5911 
21.891 -1.33763 14.654 
20.8059 -1.58619 15.0692 
20.6286 -0.44052 15.0679 
20.0057 3.16236 15.1882 
20.4688 3.82195 14.9857 
23.353 -3.26087 15.5486 
24.1724 -3.14485 15.4925 
20.8133 -2.67765 15.6082 
20.4315 -1.68544 15.4497 
19.3295 -1.10634 15.6121 
19.2302 0.188701 15.4876 
19.3395 2.96172 15.4615 
19.4476 4.45209 15.5776 
20.5559 5.25073 15.5253 
23.8578 -3.31579 16.3128 
20.5636 -1.64268 16.5214 
19.7822 2.98923 16.5641 
25.2126 -2.81293 18.8664 
22.7358 -2.19764 18.5842 
21.2525 -1.57545 18.5216 
21.4232 -1.14172 18.2676 
19.2241 -0.201018 18.82 
19.8197 1.51895 18.3519 
19.1471 2.42059 18.808 
19.8475 2.61539 18.6671 
19.8559 3.91777 18.7774 
20.5312 4.79077 18.7905 
22.4988 -2.20052 20.5695 
23.4184 -2.52721 20.6155 
22.9913 -1.88337 21.6475 
21.9942 -1.22324 21.5524 
20.7829 -0.534593 21.5668 
20.3663 1.54159 21.4624 
20.1788 2.49393 21.6449 
24.9783 -2.61337 22.194 
21.437 -1.65907 21.9632 
22.6545 -2.01706 22.0548 
18.527 1.07232 22.1978 
19.3479 0.992272 22.0722 
19.7783 1.14075 21.9339 
19.1647 1.74772 22.1935 
23.0188 6.56496 22.7083 
22.9981 1.29982 28.4558 
23.0074 1.24795 29.7313 
23.304 1.51802 31.4078 
23.4888 1.42904 34.8287 
23.4347 1.44722 36.027 
23.5748 1.52544 36.8701 
20.2309 -1.84156 1.1789 
22.7256 -2.66435 1.66875 
20.2454 -1.80451 1.95219 
20.4235 -1.78863 1.55887 
19.4977 3.86637 2.06428 
19.0417 5.42449 1.76294 
22.2483 -2.69563 2.53212 
26.3013 -1.76132 2.31885 
19.7773 -0.908807 2.3578 
27.2183 -1.28399 2.5209 
21.6439 -1.4719 3.06906 
20.6263 2.94302 3.26222 
20.0203 0.825921 3.7983 
22.6887 -2.57922 4.44662 
20.0037 -0.977956 4.55821 
21.2713 -3.05208 5.15293 
19.8485 -2.32905 5.26977 
19.2387 0.318324 5.38554 
18.47 0.948636 5.45216 
18.4184 2.48341 5.11808 
22.5549 -2.69359 6.01614 
20.3674 -1.93732 5.79638 
20.4001 -1.973 6.5791 
22.9973 6.1644 6.71959 
20.8452 -0.450184 7.45654 
20.2088 0.523022 7.41984 
22.647 -2.58409 8.28991 
23.4938 -2.4049 7.95458 
20.4913 -1.04119 8.01395 
20.0435 1.85619 7.78658 
19.8103 -2.51699 8.7168 
19.364 -0.260331 8.59089 
18.4446 2.45192 8.68587 
22.7111 -2.56301 9.47436 
23.2985 -2.65289 9.22227 
20.7416 -1.8945 10.127 
22.8581 -1.27754 11.1278 
20.886 -0.461623 10.9233 
20.0997 1.74439 11.0164 
20.7409 3.69325 11.0121 
23.3688 -2.45692 11.6106 
20.8011 -0.893346 11.5643 
19.9851 1.55693 11.43 
19.9107 2.92522 11.8047 
23.9158 -3.79591 12.2012 
22.8136 -2.52511 11.9522 
19.5473 -1.57009 12.1632 
20.7316 -1.8845 11.9628 
20.0552 -1.05545 11.9771 
19.0909 -0.402108 12.1011 
18.9922 0.83029 11.996 
23.2261 -2.66611 13.1221 
22.9145 -2.58784 13.6758 
21.2331 -0.972312 14.5159 
20.7579 0.457776 14.6328 
23.4431 -2.40129 15.0782 
24.5354 -2.20138 14.9762 
21.5351 -1.78575 15.1713 
22.7517 -1.56115 14.901 
20.802 -2.43929 15.5437 
22.822 -2.57971 15.421 
19.7419 -1.70296 15.5874 
20.0588 -1.16154 15.4532 
19.7475 -0.404128 15.4423 
19.136 3.10336 15.5138 
19.2456 5.11255 15.8484 
21.4273 5.77024 15.4933 
23.1901 -2.61533 16.5428 
19.9559 -0.256668 16.5498 
19.4861 0.603385 16.6717 
18.0381 0.993191 16.3577 
19.5549 0.596509 17.2141 
22.0681 -2.89467 18.8195 
20.8458 -2.29386 18.8072 
22.8833 -2.44103 18.6762 
25.0432 -2.08839 18.7754 
19.4693 -0.794288 18.8153 
20.0243 1.08583 18.2617 
19.1727 3.07128 18.8119 
23.8765 -3.71442 19.2739 
18.9616 0.059035 18.9923 
19.9355 -2.6815 19.7554 
20.5349 -1.22202 20.0059 
19.8102 0.295789 20.1272 
20.5012 2.29242 21.6329 
24.9385 -2.38888 22.172 
20.6709 -1.5532 22.0902 
19.7894 -1.01001 22.2139 
23.6369 1.0274 28.4548 
23.0285 1.80194 28.6132 
23.2366 1.57036 33.1472 
18.9952 -3.68843 1.10991 
19.2116 0.44863 1.24755 
17.6932 6.42388 1.31685 
20.2613 -1.89849 2 
19.9048 -0.786149 1.64166 
19.8518 4.37753 1.51304 
20.6792 2.95454 2.78318 
20.0209 0.82435 3.1515 
20.6691 -0.429632 3.71954 
20.0557 0.76029 3.78833 
20.607 -1.84932 4.42853 
19.7955 -2.29723 5.20079 
22.5803 -2.68144 5.40855 
17.7917 0.590204 5.24847 
18.3794 2.53926 5.10975 
18.7078 1.17248 6.02101 
19.4146 3.27994 6.1488 
19.7937 3.75789 5.71655 
20.4229 -2.03726 6.58699 
18.7964 1.1649 6.77071 
22.963 6.11367 6.81538 
22.7037 -2.62313 8.3325 
21.424 -1.66221 7.91717 
20.45 -0.925443 7.99606 
21.1799 -3.13728 8.67046 
19.3646 -0.143586 8.49845 
18.4605 2.34982 8.66228 
22.6861 -2.63365 9.56728 
23.2557 -2.59501 9.25344 
20.1343 -0.998132 9.34794 
19.4858 -0.0752115 9.58117 
18.9826 1.00314 9.47475 
19.4436 2.96824 9.60224 
20.8279 -1.97009 10.1089 
19.5384 2.91143 10.203 
21.3014 -1.79893 11.6075 
23.9264 -3.7683 12.1593 
21.9065 -2.98206 12.1059 
20.8563 -1.9533 11.9658 
18.9755 0.79472 12.0056 
19.1484 2.38861 12.0244 
19.4528 4.42855 12.1619 
20.1521 -2.39787 12.9306 
19.8375 -0.14869 13.0484 
23.0112 -2.61288 13.6518 
20.8379 0.426033 14.664 
20.0552 1.21574 14.6226 
21.5133 -1.85724 15.2644 
21.7775 -1.8631 14.9783 
19.7859 1.01848 14.9257 
20.7963 -2.32012 15.5114 
22.9443 -2.61022 15.4143 
19.1825 -0.801921 15.6063 
20.1365 -1.22475 15.4427 
19.6965 -0.399069 15.444 
18.9966 1.72275 15.4539 
19.1989 5.15361 15.8856 
