ply
format ascii 1.0
comment Created by CloudCompare v2.11.1 (Anoia)
comment Created 2026/6/3 下午8:38
obj_info Generated by CloudCompare!
element vertex 1912
property float x
property float y
property float z
end_header
29.7228 7.03668 1.46153 
30.2027 7.52809 1.63854 
30.4741 7.87789 1.4538 
30.8741 8.3657 1.5106 
31.2238 9.00516 1.67697 
31.401 9.2239 1.55181 
31.623 9.48625 1.81712 
32.4111 9.12651 1.60106 
27.8648 6.65237 2.12323 
32.4782 9.04695 2.13504 
31.3473 9.40022 2.202 
40.2122 2.96905 3.16073 
32.9281 8.68479 3.20648 
39.6521 -1.04823 3.95648 
39.0781 -0.328195 3.807 
40.4877 2.767 4.0179 
33.4652 8.30382 3.73536 
40.4369 2.74974 4.8947 
40.9162 2.41745 4.52949 
34.3583 7.66501 4.69311 
34.2536 7.76338 4.23729 
33.9439 7.89913 5.15843 
34.2384 7.6796 5.6046 
34.4069 7.54124 6.04519 
37.185 -1.20733 6.70301 
34.5315 7.41604 6.70582 
34.8178 7.18946 7.33187 
33.247 -3.22562 7.79964 
35.2669 6.86234 7.89904 
36.133 6.24874 8.74118 
36.4503 6.02344 9.05733 
35.7823 6.49588 8.41902 
36.7421 5.8009 9.57222 
33.1106 0.616848 10.0392 
36.7899 5.61471 10.2968 
40.4783 2.69368 0.537025 
36.5754 -3.55379 1.08116 
40.5505 2.64189 0.865617 
40.8819 2.40769 1.10211 
37.0357 5.5164 1.20042 
36.7719 5.69505 0.727874 
40.9434 2.37148 1.72796 
36.9172 5.5429 1.74488 
40.3006 -1.59289 2.69765 
37.0445 5.43062 2.33936 
37.2799 5.22099 2.65569 
40.4229 -1.55819 3.11942 
39.212 -0.593008 3.11403 
37.3208 5.18092 3.23609 
37.602 5.01678 3.84832 
27.7869 -14.5749 4.39506 
32.2824 -8.58064 4.65479 
38.0381 4.75083 4.21535 
38.5092 4.46739 4.55719 
37.6779 4.9019 4.87743 
38.0072 4.6558 5.27783 
37.8891 4.70277 6.04473 
38.3862 4.39881 6.47473 
38.6581 4.22968 6.75039 
36.4778 0.601811 7.29502 
37.9769 3.43446 7.97513 
38.3829 4.31002 8.19887 
20.6171 -10.1758 8.83121 
31.1905 -1.21822 10.2639 
38.2104 -1.43786 0.533552 
40.7509 2.49986 1.14229 
37.4768 -2.40335 1.59764 
40.8793 2.43078 1.69689 
40.3943 -1.5063 3.16205 
37.2864 5.22014 3.26933 
39.4215 -0.591317 4.05902 
32.7955 -8.34564 4.31929 
34.9513 -4.97824 5.03386 
37.9369 4.71419 5.34265 
36.4339 -2.40682 6.93097 
36.8187 0.509629 6.93651 
38.8188 2.17406 6.51215 
23.3659 -11.8089 7.52589 
38.9188 4.01791 7.33189 
36.2042 -0.326128 7.78192 
20.7476 -10.2271 8.95178 
37.6727 4.57868 9.00655 
32.9837 -0.128571 9.67941 
25.0425 0.876984 14.2347 
39.3027 3.56299 0.550818 
39.3106 3.57045 0.975323 
34.8908 7.15924 1.07567 
39.9448 3.17799 2.01054 
39.5326 -1.07757 2.60763 
35.2324 6.79473 2.45736 
40.0714 -1.21333 3.28578 
40.3144 2.89256 3.80073 
36.2191 6.13044 3.98348 
35.5868 6.53864 3.66344 
40.475 2.7642 4.63493 
36.6072 5.87014 4.57034 
39.6165 1.20804 5.25939 
40.4562 2.63799 5.31752 
36.2327 6.0445 5.28474 
37.015 -1.02962 6.09202 
34.5831 -4.58063 6.59167 
37.1753 -1.13318 6.61306 
36.8776 5.54481 6.93384 
33.4675 -3.57454 7.20928 
35.6407 0.129853 7.67762 
35.9781 0.102432 7.31038 
22.915 -11.6363 7.78226 
35.801 0.329748 7.90399 
35.8665 0.988114 8.00032 
38.0233 4.63338 8.71002 
37.494 5.01685 9.39664 
35.854 4.70304 10.5449 
33.3302 1.58726 12.1878 
39.1919 -3.37358 0.458386 
38.4187 4.32392 0.682935 
33.1625 8.50448 0.569323 
33.3406 8.35752 1.11053 
39.2771 -3.39229 1.84952 
38.8672 3.99663 1.61781 
33.7073 8.10162 1.6742 
39.384 -0.925895 2.59945 
38.7914 4.03309 2.28902 
33.78 8.01936 2.1583 
40.3998 -1.62399 3.08268 
39.4338 0.259776 2.99737 
38.8899 3.91839 3.23224 
33.8021 7.92825 3.08585 
39.1874 3.74414 3.71973 
39.54 3.55626 4.0419 
34.2486 7.63269 3.58318 
34.8394 7.25687 4.06124 
39.8715 3.37985 4.3416 
40.1916 3.10479 4.43049 
39.3787 3.66455 4.71884 
35.5018 6.84324 4.50595 
34.7896 -5.26352 4.97103 
37.5905 -0.968846 5.48494 
39.5511 3.45055 5.42082 
39.3988 3.5414 5.14874 
34.7927 7.1944 5.11219 
39.7887 3.19413 5.94239 
34.7425 7.21832 5.98045 
38.6102 1.79521 6.41844 
35.1515 6.85178 6.75271 
36.3778 6.10417 7.36152 
34.8522 -0.871918 8.25287 
36.37 6.0599 7.93643 
36.5587 5.92414 8.275 
36.6511 5.85496 8.88231 
30.8262 -3.57007 9.14373 
35.2008 2.53778 9.60141 
37.3125 5.25094 9.51015 
36.8401 5.711 9.44087 
35.1355 -5.44835 0.623171 
38.7351 4.12094 1.05189 
28.644 -13.4222 1.52815 
38.9408 -0.785993 1.80984 
38.783 4.06837 1.6299 
28.8352 -13.1724 2.60206 
31.6036 -9.72231 3.41326 
39.3335 0.166422 2.93395 
41.0547 2.05914 3.22895 
38.8875 -3.32091 3.59519 
39.3478 0.0767747 3.81565 
40.0052 0.775437 3.78058 
40.0782 3.21069 4.52155 
39.7773 3.27747 5.85627 
34.8543 7.11068 5.95888 
36.6836 -0.79454 6.69292 
36.7856 1.20848 7.45126 
37.6693 1.96767 7.23023 
37.4021 4.10303 8.86548 
36.718 5.7988 8.82397 
34.2231 1.60085 9.77953 
36.8892 5.66605 9.3752 
36.9782 5.43393 10.0503 
33.1699 1.77701 11.0145 
40.152 2.93201 0.391055 
37.2653 5.26386 0.434063 
40.4718 2.70574 1.12412 
40.2521 2.85837 0.889426 
37.4268 5.12766 1.05163 
31.862 9.53005 1.0775 
40.7937 1.80501 1.75004 
40.5382 2.69078 1.71523 
40.8646 2.4017 1.89579 
37.4461 5.08568 1.71946 
31.9105 9.39599 1.94981 
39.4703 -3.12709 2.56335 
40.8396 2.42396 2.45982 
37.38 5.10086 2.67762 
32.3111 9.19101 2.60849 
38.2068 -5.12758 3.24004 
40.8535 2.44257 3.09177 
37.6725 4.82876 3.02724 
38.1087 4.58948 3.42477 
32.5035 9.03086 3.13262 
39.0834 -0.437406 3.81053 
40.9208 2.36671 3.82462 
38.2701 4.49217 3.85926 
33.4953 8.3243 3.9543 
32.9795 8.70666 3.6661 
32.3089 -8.77284 4.60355 
38.602 4.33659 4.63451 
34.0639 7.9316 4.43938 
38.7627 4.10035 5.59904 
38.1562 4.52334 5.17492 
38.5889 4.21533 5.43082 
33.4872 8.28027 5.08883 
33.863 7.9837 5.34783 
39.0171 3.94349 6.00731 
34.092 7.84935 5.96752 
36.339 -0.344773 6.77553 
39.3443 3.71392 6.68977 
34.279 7.66075 6.82561 
34.2177 7.7366 6.39615 
36.2221 -0.417996 7.21426 
36.5078 -0.549073 7.58809 
34.6295 7.36682 7.4026 
34.6613 7.30156 8.17214 
30.0002 -4.83685 8.98237 
35.1953 6.94812 8.7905 
35.0139 7.08813 8.41288 
35.5801 6.67783 9.3088 
29.9454 -3.32988 9.99115 
36.2537 6.19536 10.3141 
35.9255 6.43093 9.81889 
24.2113 -0.333406 14.1002 
24.9116 1.79056 14.7779 
39.7841 3.19892 0.449935 
37.3932 5.15699 0.382736 
33.3329 8.37081 0.419221 
39.7552 3.22876 1.07108 
33.4279 8.29271 1.03141 
40.0657 3.05778 1.75941 
37.6751 4.87568 1.63632 
33.761 8.06287 1.58545 
40.4056 -1.71318 2.68494 
40.2558 2.93255 2.39642 
37.777 4.7879 2.17428 
37.8324 4.73582 2.51832 
40.4611 2.76207 3.29445 
38.0819 4.59191 3.17478 
34.2253 7.64208 3.34212 
33.8482 7.89226 2.97264 
39.9899 -1.09196 3.76559 
40.7888 2.49976 3.99026 
38.313 4.44874 3.76106 
38.5421 4.3011 4.18475 
34.7355 7.32389 3.93584 
40.9207 2.47193 4.60516 
38.9563 4.09755 4.42818 
35.1456 7.0679 4.45791 
37.1963 -2.31587 4.97647 
38.3132 4.39027 5.11325 
35.0615 7.01891 5.44247 
39.7015 3.03946 6.0702 
38.9609 3.97905 5.92041 
34.8781 7.07057 6.01382 
39.1757 3.84934 6.42236 
33.5572 -5.73217 7.17452 
35.4916 6.62094 7.35144 
35.7585 6.45294 7.69071 
35.8217 0.459303 7.8225 
36.2827 6.12926 8.08386 
32.9973 -1.72034 8.58542 
36.5989 5.89869 8.82176 
36.8433 5.63902 10.2309 
33.1688 1.76009 12.1674 
25.5516 1.12826 13.8224 
37.4571 5.10355 0.357073 
39.825 3.16732 0.985829 
33.4716 8.26031 0.991857 
35.4408 -4.85352 1.55854 
40.3611 2.85156 2.97939 
38.0007 -1.20199 5.0224 
39.5813 1.21493 5.29019 
38.4044 1.30165 6.23273 
39.842 2.70192 6.03286 
39.6636 2.92045 6.17716 
34.2121 -4.07727 6.55519 
36.2683 -0.40921 6.90729 
36.5434 -0.384429 6.57038 
35.1683 6.83746 6.80233 
39.0054 3.82715 7.41828 
35.7643 1.70236 8.57956 
36.799 5.74974 9.46883 
31.632 -0.62918 10.2276 
34.8106 2.91748 10.1411 
35.778 3.83649 9.95692 
33.1443 1.77823 12.2291 
40.0762 2.98786 0.496793 
40.1363 2.9423 1.01849 
38.1787 4.54855 1.13962 
34.8129 7.22545 1.05464 
36.638 -3.37029 1.52883 
37.5914 -2.27162 1.5936 
40.2446 2.9159 1.72176 
38.2802 4.45226 1.83425 
34.9609 7.10717 1.73651 
27.8107 -14.4249 2.63082 
40.4667 2.76643 2.45214 
38.1831 4.49073 2.49804 
35.1503 6.88725 2.52005 
38.2808 4.40234 3.09948 
29.0202 11.7083 3.20567 
40.5565 2.67306 3.75217 
38.9974 3.91164 3.81392 
38.5407 4.25495 3.88152 
35.5325 6.60552 3.74492 
30.6476 -10.7565 4.58306 
39.0188 3.99181 4.48305 
36.2815 6.15187 4.42976 
35.9256 6.42118 4.24737 
31.1421 -8.2659 5.38742 
38.8862 3.96676 5.32203 
35.8027 6.39805 5.1557 
39.2664 3.73418 5.95574 
36.1594 6.12948 5.85346 
34.5424 -4.26161 6.59422 
34.6713 -3.91428 6.68488 
36.366 6.01795 6.39462 
37.9674 2.26196 7.1954 
36.6294 5.81676 7.23493 
36.8119 2.37536 8.21632 
37.0356 5.52187 8.35978 
36.7643 5.73818 8.01321 
37.3548 5.25873 8.74339 
23.1394 4.76916 14.2397 
31.2803 -10.1614 0.395007 
38.5893 -0.957401 0.436375 
40.0486 3.00807 0.573791 
38.2829 4.42644 0.654489 
29.012 11.6843 0.612331 
38.2445 4.49321 1.0874 
35.2485 6.84741 1.1458 
28.9863 11.6748 1.02503 
38.3974 4.36606 1.75582 
35.3464 6.74834 1.78732 
40.3724 -1.62621 2.71992 
38.5075 4.24861 2.52465 
29.0092 11.5594 2.35673 
39.3591 -3.58617 3.19027 
38.7196 4.04616 3.25332 
38.3886 4.30977 3.03446 
35.2968 6.70312 3.16375 
30.3247 10.8578 3.26379 
39.8258 -0.988731 3.9055 
38.8733 3.99858 3.77136 
36.1186 6.20053 3.9038 
31.1725 10.25 3.86722 
36.5392 -3.6713 4.64403 
38.3147 -2.03735 4.41012 
39.069 3.92235 4.61099 
39.3418 3.77857 4.46365 
31.2583 10.087 4.33593 
36.1886 6.07901 5.14851 
39.3385 3.68049 6.01374 
36.2383 6.05641 5.72955 
37.7015 1.29862 6.7927 
38.4354 2.14064 6.78987 
39.5456 3.56549 6.64374 
36.4752 -0.57018 7.28719 
35.9954 0.419513 7.51238 
33.298 -3.26282 7.8679 
37.2476 5.31449 8.05243 
21.4066 -10.8128 8.88052 
34.5843 0.460655 8.78855 
32.3934 -0.958104 9.59484 
37.4074 5.21092 9.47025 
33.3904 1.59948 10.8677 
31.2033 -10.2503 0.387749 
40.0348 3.01817 0.612291 
29.0259 11.679 1.10888 
39.9174 0.678486 1.53652 
38.4267 4.34451 1.73621 
35.3072 6.7268 2.39469 
38.4425 4.26349 3.00195 
30.3741 10.8064 3.19356 
38.832 4.02757 3.75717 
31.0661 10.3273 3.79021 
39.3431 3.79404 4.39953 
39.025 3.84982 5.26284 
36.3694 -0.544101 6.79298 
36.9577 0.441487 6.79073 
36.914 5.55224 7.40116 
36.4472 -0.600946 7.7181 
36.4397 1.34873 7.81448 
37.1863 5.36922 8.0409 
35.3272 1.47844 8.79537 
37.4062 5.21917 8.79499 
32.2975 -0.960429 9.67555 
28.9731 -1.26172 11.0987 
36.5487 -3.67835 0.603545 
38.8544 3.94167 0.575574 
36.3663 6.06359 0.553405 
38.0132 -5.16573 0.997618 
40.2096 2.89096 1.00325 
36.5903 5.873 1.02775 
38.8235 4.02265 1.72248 
36.4269 5.95279 1.71319 
31.9948 9.41332 1.85829 
39.1309 -1.03425 2.41322 
40.7066 2.56205 2.47595 
38.8632 3.97054 2.34932 
36.4937 5.87015 2.45615 
32.1269 9.36679 2.26851 
32.2563 9.24024 2.68768 
40.7275 2.54596 3.0907 
38.8967 3.92305 3.14804 
36.5209 5.80642 3.16651 
32.3755 9.16042 3.27069 
39.4631 3.61207 4.01933 
36.9081 5.58996 3.91013 
36.5388 5.77323 3.51515 
32.7209 8.94263 3.78044 
36.972 5.55371 4.75395 
37.4317 5.22303 4.58711 
33.1001 8.69166 4.49296 
39.3617 3.57958 5.22843 
36.9496 5.46456 5.3766 
33.06 8.64334 5.37564 
39.6576 3.31101 6.03802 
37.0577 5.384 5.85701 
37.1266 5.33201 6.17188 
33.1066 8.60579 6.14581 
36.5695 -0.625205 6.53119 
39.569 3.23526 6.59345 
37.1651 5.28122 6.64333 
33.3471 8.25878 6.60017 
33.9643 7.96399 6.63187 
33.9141 -3.3043 7.41185 
36.6568 -0.742739 7.34358 
37.9496 2.01866 7.05935 
37.2419 5.2395 7.37441 
24.8067 3.77914 13.7361 
40.8826 2.40738 0.530123 
38.9499 3.90412 0.961323 
33.8594 7.99471 1.04445 
39.3793 3.5922 1.76466 
39.4119 -1.03797 2.56557 
39.6927 3.36349 2.578 
39.4621 3.53468 2.35507 
37.3605 5.14142 2.5844 
33.9306 7.90102 2.31676 
40.0154 -1.16077 3.31988 
39.5338 3.46732 3.17299 
39.7475 3.36723 3.84908 
37.6508 4.97912 3.86172 
34.587 7.43802 3.89839 
39.7746 3.35627 4.57327 
38.0653 4.76332 4.41732 
34.6311 7.45473 4.59382 
39.5983 1.07374 5.19978 
39.697 3.32712 5.31593 
37.725 4.87013 5.06884 
38.1406 4.55273 5.29828 
34.6164 7.34146 5.22463 
39.3996 1.83183 5.78388 
37.7397 4.81214 5.9502 
34.7782 7.20205 6.06688 
37.7719 4.76532 6.53294 
38.1213 4.55335 6.71897 
34.6671 7.30905 6.6813 
38.0284 4.61862 7.37487 
34.7999 7.20762 7.28292 
31.8314 -4.61374 8.22815 
35.5588 0.14771 7.95411 
38.3625 4.41442 8.06349 
35.1916 6.92505 7.93157 
35.2561 6.88165 8.71764 
35.7113 6.59612 9.52103 
25.4366 3.11559 13.5654 
29.1842 -12.7223 0.661846 
38.3278 -1.25603 0.377999 
40.7515 2.49949 0.568292 
29.1443 -12.7476 1.20674 
38.5588 -1.20581 1.27432 
39.0521 3.80467 0.940047 
38.7427 -1.22153 1.89348 
37.318 5.20559 1.84174 
39.5975 3.43138 2.67529 
40.8845 2.4017 3.22062 
37.4112 5.10774 3.20714 
39.7262 3.34448 4.6891 
34.7221 7.38464 4.56073 
38.3822 0.210691 5.56748 
38.015 4.66722 5.40622 
34.5613 7.38879 5.27964 
37.9889 4.63062 6.84109 
36.859 -0.838924 7.3061 
37.9967 2.68383 7.44805 
32.6662 -2.66581 8.24376 
35.823 -0.120391 8.07268 
34.9541 2.16197 9.56195 
29.6023 -3.40767 10.2043 
34.2627 2.25853 10.1496 
35.7997 4.06063 10.1665 
39.6306 3.3072 0.459853 
38.084 4.58444 0.651633 
40.8949 2.39317 1.07861 
40.1068 3.04119 1.85861 
38.1826 4.53379 1.71924 
39.8485 -1.10648 2.9412 
30.9917 10.3049 3.09994 
40.2021 3.01196 3.84934 
35.8474 6.43828 4.06205 
31.2629 10.1752 3.85033 
36.232 6.2027 4.35869 
35.8949 6.41106 4.50589 
31.6921 9.87855 4.41698 
40.2168 2.99338 5.3282 
38.2978 4.42934 5.27977 
35.809 6.40006 5.23982 
38.6429 4.23724 5.91032 
35.9414 6.32328 5.80358 
37.1735 -1.17673 6.81965 
38.8539 4.09349 6.52527 
36.3036 6.10308 6.55744 
33.4099 -5.67652 7.27154 
36.5099 5.96662 7.27191 
35.5414 -0.351677 8.1534 
35.9228 -0.154628 7.92498 
38.6091 3.99707 7.83428 
36.541 5.92714 7.9788 
36.5492 5.94031 8.68283 
35.9203 2.98293 9.3278 
35.2282 3.07661 9.88034 
33.1205 1.79907 11.4881 
40.9991 2.20761 0.529518 
40.2426 2.86696 0.542633 
34.4309 7.53011 0.485537 
29.0387 11.7654 0.535032 
37.292 5.24785 0.973655 
34.6368 7.38661 1.12619 
39.0538 3.84335 1.69068 
37.3095 5.21802 1.7675 
34.7162 7.29936 1.74648 
29.0289 11.7205 1.76995 
39.0628 3.81727 2.47406 
34.4709 7.482 2.36245 
29.0461 11.7136 2.43055 
40.5127 2.72663 3.11246 
39.0901 3.79887 3.18069 
37.3456 5.16454 3.19164 
34.4059 7.49803 3.1404 
29.7119 11.4168 3.39504 
35.1606 -5.37266 4.11813 
39.2841 -0.239657 3.93412 
40.8474 2.46308 4.00632 
39.3661 3.66627 3.90243 
37.5262 5.07627 3.83819 
37.5081 5.13129 4.5828 
37.8475 4.97981 4.61626 
34.6032 7.40983 4.72517 
31.1108 -9.38959 5.26838 
39.1036 3.77428 5.15642 
39.3141 3.63507 5.35253 
37.4947 5.09002 5.29234 
39.4 3.63028 6.00737 
37.2663 5.20034 5.96767 
37.2769 5.16663 6.60693 
33.7653 -3.38947 7.5357 
37.34 5.13903 7.33606 
37.561 5.08524 8.68614 
35.0636 7.09996 8.64319 
36.1242 5.25988 10.6212 
23.8188 3.38365 14.7484 
37.2631 5.26724 0.38901 
39.0622 3.81143 1.02838 
34.5781 7.44033 1.15004 
39.1113 3.79852 1.68273 
34.5939 7.39546 1.75147 
40.6209 -1.79468 2.54921 
39.3635 -0.80398 2.71284 
40.4782 2.75789 2.37409 
39.1127 3.77895 2.50524 
37.3142 5.20033 2.55592 
39.5014 -0.743456 3.81298 
39.0689 -0.14738 3.55954 
40.7733 2.61008 4.51901 
39.4778 3.63108 4.6101 
34.5438 7.42243 4.80739 
30.9921 -9.38887 5.35929 
33.0547 -6.53683 5.49109 
40.6857 2.6153 5.09498 
37.3128 5.15645 5.89961 
38.7669 2.20839 6.57414 
37.3049 5.13798 6.59783 
34.6271 7.33996 6.59401 
33.6909 -3.43205 7.59762 
37.4222 1.32393 7.02669 
34.845 7.22419 8.0659 
37.6384 5.01828 8.63172 
36.5764 4.40632 9.72015 
33.3377 1.28832 10.4393 
34.3666 2.5041 10.2323 
37.7622 4.85094 0.436014 
37.7736 4.84029 0.784619 
37.9866 4.68818 1.09468 
35.3446 6.76819 1.08886 
39.4196 3.56392 1.81744 
40.9973 2.01139 2.50026 
39.4688 3.52915 2.48297 
37.7245 4.81491 2.40053 
37.644 4.83705 2.98401 
31.642 9.78468 3.31015 
31.5614 9.8323 2.82054 
39.6345 3.44444 3.81488 
35.7737 6.49408 4.05649 
31.8739 9.66173 3.81271 
31.9138 9.50821 4.60687 
39.5695 3.41729 5.20001 
35.6257 6.55824 5.2374 
37.9096 4.69412 5.9756 
35.5993 6.55659 5.91548 
37.9187 4.67039 6.67139 
35.3697 6.67641 6.66492 
38.0272 4.62463 7.40234 
35.5895 6.55132 7.29639 
35.5244 0.192698 8.00146 
35.8722 6.41123 7.91682 
34.4756 -0.220724 8.6051 
35.9534 6.37978 8.65856 
34.8289 2.17493 9.67128 
36.084 6.29333 9.75189 
35.8913 6.45036 9.46456 
36.2174 6.22401 10.2661 
38.3935 -1.18078 0.388796 
39.5201 3.3891 0.486393 
38.1276 4.54744 0.541019 
39.5749 3.35954 1.1105 
32.9325 8.67415 1.14234 
40.7377 2.5449 1.7887 
38.2649 4.47031 1.75373 
36.3358 6.0209 1.6812 
32.9058 8.67466 1.80868 
38.2453 4.46643 2.50162 
36.3369 6.00705 2.37612 
32.9134 8.65961 2.47109 
40.3623 1.2285 3.22332 
39.68 3.35574 3.19222 
38.2372 4.46196 3.20169 
36.2148 6.03863 3.01668 
32.9779 8.64036 3.17547 
39.7185 3.36889 3.75397 
40.038 3.1745 3.99799 
36.1719 6.12119 3.69662 
36.5184 5.84633 3.7071 
33.2019 8.53853 3.77132 
38.2755 4.51293 4.65337 
38.6692 4.28191 4.53607 
33.9217 8.0813 4.46832 
33.1661 8.58254 4.66825 
30.0563 -8.91545 5.53863 
36.2986 5.9913 5.23295 
33.2089 8.52619 5.31787 
36.2652 6.03652 5.83683 
33.4588 8.35258 5.86744 
36.5987 5.81018 6.7093 
33.4476 8.28017 6.53334 
33.8137 8.10326 6.74549 
36.0415 -0.180712 7.25419 
38.655 4.23274 7.3119 
36.6983 5.8013 8.02251 
36.7339 5.78599 8.66213 
38.4263 -1.14315 0.394194 
39.1652 -0.186766 0.40518 
39.4833 3.4164 0.495239 
38.2226 4.50051 0.981251 
40.2083 -1.36773 3.08341 
33.0028 8.61815 3.15997 
38.3562 -4.00606 3.58167 
40.7454 2.51335 3.79262 
39.9833 3.22868 4.04754 
38.3876 4.3959 3.90032 
36.2237 6.064 3.61295 
36.5082 5.88288 3.80308 
33.2761 8.48248 3.80639 
33.5553 -6.95526 4.79236 
36.3286 6.01383 4.7102 
38.3957 4.357 5.32441 
39.8245 3.25176 5.75004 
38.5943 4.27488 5.95605 
38.6334 4.25314 6.58683 
33.7383 8.1729 6.8023 
36.6563 5.80688 7.4269 
31.2187 -3.63718 8.81543 
32.3755 -1.83914 9.03038 
34.8494 3.00307 10.1468 
33.0671 1.84282 12.2175 
24.0284 0.140093 14.4231 
38.7591 4.01942 0.493256 
34.3836 7.56418 0.577186 
38.8211 4.03572 1.01972 
37.0416 5.49296 1.09522 
34.4717 7.5003 1.73196 
39.9953 3.14004 2.42277 
38.8131 4.01418 2.47355 
34.2867 7.59049 2.67513 
40.3007 -1.38334 3.25796 
38.7392 4.04082 3.13177 
36.9888 5.46631 3.13735 
34.3761 7.52644 3.30037 
29.9965 11.1071 2.97577 
37.3333 5.25016 3.95897 
34.6416 7.40584 3.92124 
30.3446 10.7987 3.78745 
36.7551 -3.98318 4.39023 
41.0113 2.40357 4.59305 
40.0892 3.06682 5.31462 
38.8303 3.98708 5.13938 
34.4599 7.46797 5.19131 
34.2081 -4.06167 6.2003 
38.9244 4.00687 5.88238 
37.0269 5.40461 5.91825 
34.5361 7.42439 5.87853 
34.4651 -4.04792 6.71928 
36.9967 5.43295 6.73298 
37.005 5.45988 7.31869 
37.2581 5.22669 7.42078 
36.5925 1.79804 8.01432 
30.3377 -4.39966 8.98903 
36.0167 1.79742 8.43634 
34.9172 7.24759 8.55434 
36.8064 4.56014 9.63225 
29.5743 -2.9226 10.5695 
38.2782 4.42669 0.53793 
38.5401 4.3158 1.28905 
36.9679 5.55397 1.11528 
36.6493 5.7622 1.71677 
33.9957 7.87254 1.69744 
28.9471 11.7166 1.84498 
36.6157 5.7691 2.4819 
34.0573 7.80567 2.39555 
36.509 5.81468 3.21074 
33.8735 7.88622 3.24985 
34.0121 7.89673 3.91904 
39.7696 3.41892 4.5603 
39.5033 3.57623 4.67284 
38.3666 4.45276 4.55395 
36.3374 5.97884 4.79854 
33.7813 8.11454 4.65362 
34.3225 7.80022 4.52547 
37.3321 -2.16815 4.95725 
33.7909 8.05243 5.38012 
39.4694 3.57354 5.99986 
38.0275 4.61393 5.92839 
33.9569 7.96983 5.96585 
33.7456 8.15905 6.62006 
37.9921 4.65048 7.41279 
36.5351 5.94528 7.42485 
32.593 -4.38309 7.99484 
38.1913 4.54454 8.05793 
32.5534 -2.99669 8.44035 
36.2548 6.16418 8.69171 
36.2063 6.20868 9.45786 
29.1885 -4.04811 10.3376 
36.1979 6.22298 10.0794 
24.393 4.02465 13.6419 
38.3426 4.37555 0.56404 
39.489 3.43168 1.04987 
38.4112 4.36529 0.955077 
34.447 7.54561 0.964468 
39.6106 3.42304 1.79636 
34.3715 7.5944 1.56176 
34.0997 7.78706 1.77563 
34.0829 7.78703 2.40421 
40.7301 -1.95245 2.9817 
39.5932 3.48223 3.85978 
36.6031 5.81863 3.86738 
40.503 2.77956 4.5885 
36.3418 5.96135 4.84271 
36.7609 5.79405 4.49345 
40.4025 2.83112 5.22664 
38.5994 0.828565 5.74676 
38.057 4.59389 5.91659 
33.8893 8.03007 5.96501 
36.478 5.97329 6.81421 
33.748 8.15443 6.55931 
33.7843 8.14332 7.15193 
35.2723 -1.87613 7.76801 
38.1108 4.62046 8.04679 
36.3458 4.03919 9.64778 
36.2472 6.18047 9.35985 
33.7832 2.24088 10.4098 
25.2902 2.22267 14.7422 
39.2737 -3.39965 0.536489 
37.4806 5.08613 0.476715 
39.5959 0.40372 1.10063 
39.6579 3.29233 0.99529 
37.5344 5.04501 0.9926 
32.6913 8.88486 1.29314 
41.0199 2.28871 1.82081 
35.4727 6.63583 1.84149 
35.7238 6.47887 1.47492 
32.5781 8.97595 1.69217 
40.9041 2.39475 2.4618 
38.7902 4.02832 2.43732 
32.29 9.23161 3.16745 
40.336 -1.36059 3.5781 
39.9925 3.21392 3.99352 
38.8106 4.07722 3.90137 
35.3999 6.74796 3.84651 
32.3254 9.31502 3.98017 
40.9413 2.38441 4.54678 
38.8757 4.08768 4.62628 
29.8159 -9.44716 5.51774 
38.6561 4.14396 5.27178 
37.0497 5.38725 5.22935 
35.0316 7.02866 5.29278 
32.2706 9.40119 5.09411 
39.6125 2.38893 6.00119 
38.5915 4.27789 7.37762 
36.9947 5.54663 8.10456 
34.7332 7.33724 7.97666 
32.3722 -1.94034 8.96209 
36.9707 5.58593 8.40447 
36.889 5.65993 8.7828 
36.8484 5.70664 10.1338 
33.2266 1.80883 10.8626 
33.1727 1.7872 11.6191 
23.3543 3.19249 15.0467 
36.7502 5.71628 0.572154 
34.4821 7.49478 0.383742 
38.1768 4.53578 0.952325 
36.6693 5.82534 1.06721 
40.5548 2.66484 1.52016 
40.9457 2.37514 1.81757 
39.8365 3.21917 1.6075 
39.9812 3.14258 1.90168 
36.6017 5.81264 1.67815 
34.3412 7.62927 1.51271 
39.6111 -0.980986 2.73795 
38.076 4.58009 2.34076 
36.2785 6.0305 2.52571 
36.5059 5.88239 2.34168 
40.3463 -1.89772 3.27563 
39.1071 -0.534406 3.21489 
40.949 2.36144 3.07348 
39.946 3.17116 3.19226 
36.1773 6.08614 3.09463 
33.787 8.00532 3.11001 
29.6517 11.4091 3.12101 
39.9911 3.19962 3.90781 
38.0055 4.70941 3.8405 
33.7815 8.07397 3.81778 
29.8045 11.3801 3.51709 
39.5989 0.210554 4.55703 
38.9942 3.97115 4.60867 
37.5396 5.08699 4.71567 
35.9183 6.37799 4.67905 
33.5924 8.28655 4.70003 
33.7913 8.12248 4.54904 
33.7899 -5.75712 5.39406 
38.8131 4.0257 5.30409 
35.83 6.38593 5.24288 
39.8387 3.25225 5.84105 
37.4435 5.07129 5.87712 
35.8219 6.40925 5.83779 
38.9711 4.01612 6.61747 
35.4776 6.61473 6.63985 
33.3 8.59333 6.55054 
33.4213 -5.8532 7.21001 
32.6688 -3.73769 8.17002 
35.2825 0.42921 8.24881 
38.106 4.42232 8.20313 
37.364 5.20087 7.98801 
35.3662 6.79665 8.02543 
25.831 2.72236 13.1814 
24.8201 2.42203 14.8566 
39.8398 3.1598 0.463718 
39.8196 3.16996 1.02567 
36.72 5.78033 1.07792 
40.5491 -1.7314 2.00192 
39.8648 3.18889 1.54418 
38.1431 4.57905 1.51242 
37.7293 4.79715 2.56398 
37.9554 4.66364 2.26834 
36.2493 6.04222 2.60051 
39.9277 3.18384 3.20126 
39.0445 3.9187 3.88933 
37.9004 4.79591 3.84612 
33.7046 8.13305 3.78403 
39.7796 3.26452 4.81259 
39.3259 3.80596 4.55251 
29.0565 -10.5894 5.47444 
39.808 3.24063 5.26067 
37.6159 4.9847 5.24207 
35.7821 6.43791 5.84919 
33.1516 8.59835 6.01542 
35.5046 6.59931 6.63359 
35.9875 -0.213425 7.38327 
35.4477 6.66903 7.41276 
35.1732 -1.58178 7.89414 
35.1995 0.52647 8.28349 
37.3705 5.19359 7.96963 
35.4328 6.74688 8.0531 
30.9944 -1.59745 10.1841 
36.5108 4.59899 9.91494 
24.6919 2.56039 14.8535 
39.0168 3.80292 0.56454 
39.1096 3.79248 1.07108 
38.0727 4.61156 0.951101 
30.7515 -10.7933 2.01366 
39.3223 -3.53637 2.03979 
39.5404 0.401498 1.80768 
38.1053 4.61258 1.46566 
34.0206 7.84715 2.1692 
29.6549 11.3958 3.02478 
29.7986 -12.0109 4.00957 
29.9949 -11.7391 3.5689 
37.8654 4.82475 3.84799 
38.0282 4.82414 4.53212 
36.9606 -2.54559 4.99515 
38.9391 0.625231 5.38683 
39.9745 3.22416 6.13761 
34.3957 -4.06052 6.77527 
37.3149 0.22948 6.39979 
32.9977 -4.99337 7.62709 
37.651 2.60641 7.66781 
36.0183 -0.167894 7.8598 
33.1882 -0.918506 8.96045 
35.4654 6.80097 9.21925 
30.9794 -1.55522 10.2152 
26.076 2.64635 13.7118 
24.6279 2.62957 14.852 
37.0625 5.44221 0.411684 
35.1226 6.97011 0.671648 
39.113 3.76683 0.991772 
35.022 7.055 1.19207 
32.0427 9.47401 1.04119 
40.5597 -1.7454 2.37858 
38.0194 4.62587 2.36665 
36.6455 5.75956 2.34853 
34.6335 7.36315 2.48052 
39.0275 3.83556 3.18677 
36.5655 5.77601 3.12907 
34.4888 7.45356 3.24359 
31.2391 10.113 3.09376 
39.088 3.84348 3.72319 
39.821 3.21121 4.83482 
38.1014 4.71577 4.62591 
34.5635 7.50216 4.60068 
39.8423 3.20595 5.1481 
34.0049 7.86603 5.31122 
37.5616 0.200308 6.19913 
39.9937 3.18394 5.95995 
37.9681 4.68411 5.75954 
36.5863 -2.16806 6.84071 
37.6634 4.84532 6.57398 
36.4459 6.01969 6.83125 
37.0087 -0.945737 7.19272 
36.1136 -0.293888 7.40745 
36.7957 0.857757 7.19016 
37.5322 4.97617 7.33604 
36.4525 6.03903 7.28039 
33.8743 8.07092 7.19153 
37.6171 4.99323 8.06578 
36.0079 6.34605 8.81949 
35.9533 6.39568 9.4708 
29.1104 -4.10409 10.4021 
30.9864 -1.73625 10.1254 
24.7094 3.94504 13.8193 
37.3732 5.17647 0.528895 
36.0557 6.36454 0.487495 
39.7868 3.19703 1.02934 
35.4931 6.65462 1.22853 
33.0987 8.5261 1.66167 
38.2201 4.48803 2.38162 
32.9812 8.6067 2.31301 
39.2529 -0.632268 3.14105 
37.0512 5.42068 3.13446 
29.5434 11.5433 3.18695 
34.7471 -5.89515 4.03888 
39.1125 -0.316513 3.59471 
39.3861 -0.513949 3.92535 
37.0357 5.45233 3.74309 
37.275 5.31218 4.02568 
33.134 8.61985 3.89906 
37.3847 5.26518 4.64871 
35.5344 6.7703 4.51646 
32.7432 8.88781 4.88045 
33.2419 8.58851 4.65658 
38.797 0.419394 5.37076 
39.1063 3.78311 5.21468 
36.9236 5.48303 5.1923 
35.3236 6.80478 5.23437 
32.5282 8.97031 5.39201 
38.1831 0.244311 5.74467 
36.8621 5.52406 5.96776 
32.7505 8.76406 5.88016 
34.1185 -4.01885 6.6221 
38.1286 4.5492 6.56702 
34.8066 7.14867 6.64065 
38.1266 4.56277 7.28283 
36.9621 5.57318 7.99381 
36.8423 5.68388 8.09707 
34.8987 7.18938 7.97708 
35.9443 3.80157 9.77291 
25.8162 2.72462 13.3273 
24.1034 2.65697 15.1694 
40.3937 2.75646 0.565044 
33.4298 8.29759 0.593028 
40.3931 2.75693 1.02689 
35.5674 6.59784 1.29836 
39.8778 3.18861 1.61221 
39.3026 0.195521 2.36661 
37.1593 5.34478 2.42549 
33.0151 8.58024 2.23397 
29.4877 11.6171 3.26804 
39.4044 -0.504449 3.90663 
39.1719 3.7602 3.57784 
39.1025 3.77209 4.8164 
37.3115 5.35868 4.59319 
33.2633 8.61877 4.60692 
34.4918 -4.96215 5.36614 
39.2747 3.68018 5.43477 
32.6358 8.94438 5.33266 
38.2225 0.193848 5.68272 
38.2061 4.51473 5.8327 
32.7773 8.84478 5.77428 
36.5728 -0.519376 6.61162 
36.5576 -0.605792 7.33956 
36.774 5.71055 7.53184 
38.2517 4.51345 7.96 
34.9533 7.18362 8.48117 
34.2255 0.786085 9.25079 
36.1316 3.04356 9.19678 
36.2115 6.21689 0.551135 
33.9095 7.93012 0.645195 
38.3663 4.39903 0.99492 
36.0291 6.30771 0.997472 
39.2873 -3.39917 1.7451 
35.7361 6.44924 1.69603 
39.1824 3.72756 2.30882 
39.3443 3.61957 2.56089 
35.4891 6.55752 2.39772 
33.822 8.01385 2.2979 
29.8717 11.0352 2.72992 
38.0743 -4.97893 3.34703 
39.0724 -0.13956 3.21461 
39.3035 3.65305 3.14086 
37.2502 5.25047 3.14871 
33.5767 8.20318 3.28136 
33.7154 8.09706 2.97901 
30.4009 10.8272 3.78955 
38.5901 4.38231 4.46286 
35.6075 6.65163 4.64266 
37.2459 5.24774 5.28467 
35.4804 6.68089 5.23999 
36.9604 5.45403 6.03733 
35.5006 6.61959 5.87318 
33.2616 8.50511 6.03788 
36.618 -0.609685 6.48182 
38.3623 4.41897 6.58179 
37.0071 5.42267 6.62839 
33.4018 8.50844 6.59103 
37.014 -1.70156 7.10662 
36.2331 0.183382 7.15827 
38.3649 4.42177 7.26995 
37.3284 5.17926 7.50271 
35.3841 6.71695 7.4133 
34.8011 -1.66975 8.01605 
35.3833 6.78651 8.69599 
33.987 2.4321 10.397 
37.1449 5.40285 9.88549 
28.2958 -2.5537 11.0439 
35.7798 4.66082 10.5934 
34.2967 7.63283 0.508083 
37.3893 5.16736 1.01745 
36.2642 6.15043 0.991049 
34.2901 7.65062 0.904124 
39.302 3.64846 1.75885 
37.3549 5.1748 1.76567 
36.1533 6.16173 1.74705 
38.3901 4.34466 2.51438 
35.9838 6.22677 3.15517 
38.3746 4.36258 3.6791 
36.0573 6.23492 3.79689 
33.8912 8.00507 3.87819 
38.188 -1.77176 4.59277 
33.9657 7.97244 4.5092 
34.3357 7.78871 4.55838 
37.3299 5.19285 5.2395 
35.8943 6.36273 6.65167 
33.9604 7.98385 6.54267 
33.9747 -3.80416 7.50589 
35.8017 6.41509 7.49812 
38.6208 4.27323 7.86953 
37.3814 5.19874 8.04576 
35.9124 6.39224 7.96656 
32.3869 -1.59802 9.18242 
37.4427 5.20819 9.36622 
31.7235 -0.578634 10.2109 
25.3886 3.27724 13.7031 
25.5504 1.5533 14.202 
23.4673 3.26057 14.9873 
39.2232 -0.0516787 1.27691 
34.4313 7.6067 1.24347 
34.1437 7.74932 1.81172 
38.4327 -4.82946 3.21717 
39.9862 0.755653 3.70192 
40.2001 3.06265 4.57759 
36.2215 6.21847 4.47938 
38.4301 4.30539 5.13019 
39.1234 2.20324 6.27657 
32.7164 -2.93481 8.2697 
36.5887 5.86216 0.545219 
40.1024 2.97637 1.20782 
38.5428 4.28865 1.07342 
39.3085 3.64246 1.80243 
32.0395 9.43592 1.84716 
38.4439 4.28396 2.64413 
36.0931 6.14171 3.20184 
34.6371 -6.04361 4.08963 
36.1964 6.12823 3.84096 
34.5084 7.48245 3.79689 
32.0084 9.56967 3.92294 
39.5716 3.55425 4.58824 
37.838 4.9805 4.5266 
36.193 6.15611 4.67593 
36.5551 5.95435 4.47514 
32.0417 9.51026 4.61022 
38.736 4.07129 5.1987 
34.3795 7.53295 5.13189 
37.0045 -0.984195 6.0858 
38.3856 1.22064 6.17842 
34.5547 7.39507 5.86221 
37.4044 5.0566 6.59695 
36.2543 -0.391667 7.35755 
37.4413 5.04899 7.35969 
34.549 7.4464 7.43824 
37.6679 5.01406 8.80385 
30.1939 -2.99685 9.98941 
36.2938 6.13631 10.0053 
36.656 5.8829 10.2436 
33.3035 1.83264 10.7856 
25.7773 2.74841 13.4027 
23.344 2.40893 15.649 
35.5023 6.64411 1.19291 
33.7679 8.07496 1.19225 
36.9782 5.48145 2.39313 
33.7645 8.05508 2.33616 
39.7783 3.2827 3.22049 
38.1978 4.50113 3.20743 
31.068 10.2495 3.12051 
39.7084 -0.876056 3.79266 
39.8009 3.30582 3.74296 
35.5829 6.59275 3.83956 
40.9748 2.38719 4.61264 
36.9842 5.49117 4.81126 
35.8392 6.47471 4.63189 
40.0651 3.08826 5.42859 
35.5665 6.60254 5.18468 
33.8004 8.03862 5.31644 
37.3091 0.186591 6.37424 
38.2795 4.46465 6.66314 
37.0512 5.40823 7.14417 
34.7975 -1.59512 8.04045 
35.8306 6.45017 8.04964 
35.8892 6.42825 8.81227 
33.8197 2.2983 10.4362 
32.887 2.03682 11.1104 
32.7404 1.8676 11.4766 
32.7563 1.86223 11.997 
26.0824 2.89418 13.8425 
23.4693 2.50967 15.5541 
36.9837 5.51038 0.581227 
38.0827 4.61015 1.04027 
33.7012 8.12819 1.26134 
38.0679 4.60391 1.80014 
38.9727 3.87483 2.45237 
36.9704 5.4871 2.40917 
38.3322 -3.99946 3.59292 
37.5742 -3.41652 4.19706 
39.85 3.21799 4.78832 
38.9786 3.87815 4.81103 
33.8662 8.05616 4.61868 
39.9865 3.1426 5.50923 
35.5952 6.57643 5.16625 
33.8945 8.03205 6.04123 
37.0265 -1.00872 6.5743 
37.3558 1.00991 6.84424 
37.069 5.38803 7.08817 
37.1626 5.32014 7.42426 
35.6104 6.5384 7.32823 
36.801 1.7489 7.81528 
29.575 -4.74239 9.37988 
35.3819 3.44252 9.99293 
32.8123 1.94438 11.5021 
32.8236 1.93445 11.9728 
33.9092 7.92772 0.474384 
35.9528 6.35573 1.08597 
39.2637 -0.67287 2.79216 
40.0369 3.1051 2.37241 
35.7746 6.37162 2.34536 
33.924 7.90422 2.46898 
35.7513 6.34865 3.00127 
39.3579 3.64785 3.79634 
35.8277 6.40138 3.78723 
31.9823 9.58515 3.91133 
34.5391 7.55856 4.46115 
32.0886 9.51543 4.57032 
34.2633 7.6242 5.11231 
38.5987 4.27382 6.66608 
36.3303 6.09707 6.63663 
34.4345 7.50831 6.55119 
34.5228 7.45975 7.37471 
34.8653 -1.69613 7.97967 
36.6493 5.84196 8.22294 
34.022 -0.260297 8.79738 
37.5937 5.07686 8.82623 
36.6111 5.88639 8.74533 
36.6455 5.87407 9.37708 
36.5763 5.92954 10.1465 
32.2848 9.27513 0.388453 
32.3629 9.18739 1.05503 
37.4172 5.12106 1.5842 
40.2081 2.96873 2.42404 
32.4547 9.06415 2.2984 
34.6644 7.31561 3.23469 
32.556 8.99617 3.20886 
29.573 11.4993 3.21578 
32.7702 8.90742 3.83957 
34.6904 7.34849 4.66105 
36.4445 5.86193 5.28945 
34.6403 7.32119 5.16642 
33.1329 8.58761 5.42693 
37.6465 4.85206 6.63371 
34.7263 7.19386 6.64533 
33.3823 8.52803 6.61261 
38.2279 2.59033 7.20878 
37.7196 4.83014 7.42119 
34.9665 6.99321 7.18324 
35.283 6.84988 8.00075 
33.3895 1.58761 11.6012 
24.7967 3.22649 14.3454 
38.1052 -1.51741 0.383176 
39.2534 3.6042 0.474054 
33.012 8.60812 1.05839 
40.1666 2.98309 1.80062 
35.2832 6.79934 1.88439 
36.7034 5.66607 3.17472 
35.2505 6.75625 3.25668 
30.792 10.4734 3.03752 
36.7162 5.73856 3.87717 
35.5005 6.69101 3.9704 
37.7165 -2.35974 4.59298 
38.4349 -1.83279 4.42795 
35.576 6.68121 4.66861 
39.005 3.98369 6.6451 
37.1653 -1.21833 7.16619 
38.5598 4.29478 7.43945 
34.0302 7.95412 7.35876 
37.0303 5.50083 8.00087 
35.7646 6.49985 8.10795 
35.8285 6.46615 8.77914 
35.1956 4.04761 10.6319 
23.6963 2.64288 15.3744 
39.5238 0.288125 0.39564 
33.0518 8.5751 1.01641 
35.2276 6.848 1.89745 
39.989 -1.24487 2.731 
33.1839 8.44302 2.43632 
39.2247 -0.621088 2.99746 
39.7974 0.574338 2.96879 
33.3728 8.32746 3.28666 
36.9632 5.55427 4.02478 
36.802 5.67035 3.84743 
35.4685 6.7246 4.00158 
38.197 4.58969 4.6561 
37.027 5.55892 4.59088 
36.5011 -0.608554 6.67467 
35.4131 6.62793 6.59053 
35.8086 1.29595 8.26766 
36.331 1.51002 7.99567 
37.1797 5.40668 8.73 
37.1755 4.61764 9.39017 
37.2027 5.40588 9.42956 
35.8651 6.44166 9.39594 
35.9785 6.39953 10.0014 
35.2464 4.11325 10.6432 
35.8342 6.42429 1.15335 
37.6295 -2.20025 1.49037 
39.633 3.40496 2.46588 
35.4737 6.56751 2.54916 
40.3581 -1.53043 3.21759 
39.0854 -0.217385 3.2334 
36.3174 5.94589 3.09832 
35.4165 6.6085 3.15928 
31.8011 9.64786 3.2004 
39.609 3.45251 3.78322 
38.7615 4.09366 3.8228 
35.8676 6.38004 3.86415 
34.4763 7.53477 4.00176 
40.2858 2.98131 4.53895 
36.6168 5.87407 4.60209 
35.975 6.39369 4.56513 
34.1697 7.68314 4.85632 
39.5665 3.40917 5.08844 
40.179 2.99715 5.24984 
34.2611 7.63495 5.30011 
38.7811 4.12366 5.94659 
36.0682 6.22085 6.09714 
36.4782 5.84754 5.95317 
38.7914 4.1343 6.67407 
36.165 6.21182 6.6643 
38.645 4.24169 7.5019 
36.2187 6.20075 7.31725 
36.1952 6.18683 8.01273 
34.6742 7.41417 8.14275 
31.2185 -3.26275 9.00554 
37.399 5.15264 9.3664 
36.2771 6.15344 9.40142 
36.3294 5.8747 10.603 
35.1944 6.91399 0.535394 
34.0262 7.83231 0.457128 
37.3435 5.19906 0.956749 
34.0642 7.82014 0.925432 
40.1891 2.96257 1.75584 
35.8763 6.3519 1.67815 
34.2268 7.67237 1.79576 
33.2646 8.38586 2.09919 
35.8394 6.33095 2.33644 
34.2417 7.62945 2.59532 
33.3043 8.36034 2.51275 
40.0056 0.775976 3.42358 
33.3658 8.32446 3.17501 
40.1052 3.08143 3.77536 
36.1433 6.23819 4.63577 
39.0032 3.85256 5.17398 
37.2491 5.2312 5.19845 
36.005 6.23228 5.23044 
37.2056 -1.11229 6.05175 
35.3492 6.72462 5.85837 
33.7719 8.10998 5.85797 
37.2326 5.21229 6.68165 
33.8532 8.05901 6.58569 
33.9777 7.99903 7.29475 
36.1635 6.20535 7.96882 
35.4619 6.72477 8.72302 
32.847 2.03796 10.9218 
32.8206 2.02685 11.4057 
35.2174 6.8984 0.499329 
34.0909 7.78178 0.416071 
39.2905 3.59946 1.02422 
34.1191 7.7673 0.858231 
33.2011 8.45407 1.04417 
35.2437 6.83502 1.78314 
33.2008 8.43211 1.66296 
35.2104 6.81776 2.47118 
39.9872 0.749796 3.45998 
35.9986 6.20725 3.38981 
33.7449 8.14055 4.05499 
37.1963 -2.98495 4.614 
40.9387 2.02979 4.55581 
33.5321 8.23788 4.83176 
39.5877 1.61373 5.50663 
35.3679 6.7581 5.18583 
40.0053 3.20422 6.05243 
38.2453 4.47677 6.02173 
36.028 6.24883 5.98897 
34.6278 -4.3352 6.59903 
37.1944 5.27645 7.3677 
36.1968 6.19884 8.71592 
35.6008 6.66175 9.34445 
34.6744 3.40631 10.5384 
32.8149 2.04339 11.3367 
24.8179 2.36834 14.9577 
31.9645 9.54768 0.673072 
39.3978 0.170346 1.21858 
38.3895 4.38795 1.08956 
35.9525 6.34138 1.20131 
35.8601 6.35118 1.81122 
40.7652 2.52883 2.37937 
39.243 3.68319 2.35636 
35.7797 6.35377 2.46513 
33.2742 8.37941 2.64001 
34.0883 7.77704 2.3443 
32.0662 9.41377 2.37194 
40.003 -1.1913 3.18459 
37.1843 5.29947 3.10354 
35.4363 6.59403 3.08441 
34.177 7.66638 3.20592 
31.971 9.49607 3.15463 
34.2706 7.64236 3.66171 
38.8015 -0.616332 4.80726 
36.0237 6.3595 4.53578 
34.2081 7.66014 4.8306 
33.7711 8.20774 4.45363 
32.3408 9.33117 4.43811 
33.5326 8.24918 5.21651 
34.3836 7.56169 5.96983 
34.3921 7.54251 6.66467 
35.8693 6.3704 7.32533 
35.9055 6.38894 8.05983 
37.1881 5.39344 8.72185 
35.935 6.38786 8.80022 
25.3889 0.879988 13.8018 
24.7973 2.3904 14.9435 
38.7884 3.99051 0.46957 
38.8294 4.01321 0.967497 
39.6403 3.38847 1.81454 
40.2449 2.92518 1.84963 
36.6237 5.77463 1.81265 
33.3482 8.33643 1.85747 
35.1859 6.8543 2.35939 
39.5527 3.47619 3.6609 
38.7526 4.09008 3.78959 
37.7474 4.87996 3.71888 
35.2776 6.84989 3.85646 
35.4054 6.82633 4.64254 
38.5299 4.24058 5.29127 
35.1777 6.84415 5.91719 
38.2803 4.45496 6.81373 
35.9873 -0.211857 7.44533 
35.2093 6.83153 7.31291 
35.3566 6.81889 8.82765 
36.6397 5.86862 10.1575 
36.5495 5.86426 10.6418 
23.5366 3.10279 15.1089 
37.9787 4.66454 0.582766 
33.3945 8.31235 0.645151 
36.7634 5.73464 1.2069 
33.3761 8.31996 1.77689 
39.6359 -0.910527 3.20981 
36.5633 5.76319 3.20061 
35.1588 6.84812 2.99442 
33.4085 8.29693 3.13465 
31.137 10.1807 3.1053 
38.5764 -2.91659 3.92095 
39.6241 -0.795442 3.91378 
39.5245 3.48803 3.59974 
37.6336 5.01173 4.01391 
31.3565 10.0756 3.79736 
35.3676 6.85054 4.6702 
31.5928 9.95577 4.45265 
37.5885 4.99252 5.23924 
37.7333 1.63564 6.98754 
38.3863 4.39629 6.86835 
38.5261 4.31869 6.58218 
37.4181 5.02791 6.69388 
33.9289 -3.88215 7.61737 
37.1856 1.61187 7.37269 
35.1512 6.87341 7.2779 
38.4217 4.42965 8.03031 
36.567 -3.58358 0.757399 
40.5544 -1.82723 1.20987 
37.7416 4.81271 1.80238 
33.4008 8.29801 2.54068 
39.8034 -3.24832 3.10299 
40.4057 1.31553 2.96566 
40.6665 1.60529 3.41245 
39.2582 -2.31875 3.81113 
37.7015 4.96305 4.04453 
37.5967 4.98732 4.80293 
37.8451 0.597698 6.23156 
37.5381 4.9876 5.90104 
38.4393 4.36696 6.89565 
37.1561 1.55414 7.35707 
36.5998 5.88119 8.01469 
33.7675 -0.90339 8.69412 
36.5903 5.91508 9.52004 
23.5462 2.95893 15.2225 
39.11 -0.317271 0.629552 
38.5314 4.2247 0.498264 
34.6877 7.32338 0.490832 
36.6228 5.87642 1.22797 
32.7762 8.79975 1.18652 
34.8016 7.25644 1.81864 
32.6956 8.86011 1.72732 
38.3851 4.34988 2.39668 
32.7007 8.84039 2.35383 
32.705 8.85264 3.10147 
30.5123 10.7007 3.22157 
39.3248 -0.616075 3.82012 
39.3454 3.70103 4.00003 
30.8275 10.5331 3.92764 
40.4439 2.675 5.15146 
39.7642 3.25929 5.19741 
33.1367 8.59614 5.96428 
38.1698 4.53308 7.41594 
34.9687 1.03464 8.7763 
32.8525 2.00193 12.0271 
40.0996 1.02569 0.610154 
37.8951 4.73228 0.608731 
29.0235 11.8126 0.538602 
40.198 1.1023 1.2057 
34.0377 7.84839 1.07763 
39.5669 3.44156 1.76773 
33.9837 7.85734 1.81148 
31.9955 9.49526 1.74091 
40.1843 2.98466 2.53437 
32.0072 9.46084 2.48989 
40.7303 2.52632 3.20853 
40.1201 3.03657 3.22339 
38.589 4.1365 3.18556 
39.3717 3.59147 3.21697 
39.6107 0.282981 4.02621 
39.4053 3.63967 3.95192 
38.6102 4.22076 3.90688 
33.8853 7.96608 3.83355 
32.0556 9.49076 3.74606 
36.8063 5.74644 4.53476 
39.9997 3.11068 5.28117 
36.5706 5.75345 5.20743 
35.3913 6.74531 5.26201 
37.9113 0.648533 6.20869 
36.5483 5.77976 5.92093 
38.3963 4.39095 6.60959 
36.5974 5.79158 6.61546 
35.2967 6.76723 7.35866 
36.6573 5.82953 7.99328 
37.4479 4.33573 9.00053 
26.2533 2.41153 14.1026 
23.6387 2.38819 15.6014 
38.0428 4.60931 0.513536 
40.1133 0.965607 1.26702 
36.2206 6.16017 1.02749 
38.9147 3.97581 1.56526 
36.1511 6.14834 1.80307 
36.1112 6.15757 2.4867 
32.796 8.75387 2.42529 
39.7706 -1.01709 3.20186 
39.6043 3.40701 3.17284 
40.2621 2.92431 3.20296 
38.7817 3.98914 3.20289 
34.7072 7.27358 3.14765 
32.8021 8.75445 2.99507 
38.1723 4.56003 3.86215 
38.2167 4.61693 4.51024 
34.8532 7.29844 4.51726 
33.2204 8.58825 4.576 
40.3644 2.48629 5.38376 
36.0308 6.20603 5.19628 
33.1375 8.57172 5.32227 
38.8743 4.05493 6.00549 
36.1509 6.23471 7.36737 
37.9988 4.69906 7.98185 
36.1296 6.23567 8.06545 
34.8125 7.25544 7.99623 
37.0889 5.33292 9.46161 
36.1276 6.25494 9.45899 
36.1714 6.25543 10.229 
33.158 1.7905 10.9251 
23.409 2.81484 15.4458 
36.1877 6.18474 1.05896 
40.6299 -1.79646 2.35908 
36.0444 6.20268 3.12909 
40.813 2.44929 3.7894 
37.1845 5.33824 3.81474 
33.1379 8.59988 3.8812 
39.6006 3.4197 4.77043 
37.053 5.39455 4.83126 
31.2419 10.231 4.25261 
33.9098 -5.44202 6.85458 
33.4028 8.49418 6.60556 
37.8892 4.70532 7.33785 
34.9843 1.20535 8.88227 
34.9193 7.22471 8.62507 
37.0876 5.44339 9.37991 
37.1846 5.4318 9.67819 
33.0797 1.85322 11.6201 
34.7113 7.30018 0.994239 
40.3829 2.82383 2.01638 
39.0199 3.90374 1.48206 
39.8399 -1.1347 2.75856 
36.0528 6.20133 2.48868 
40.5619 1.46832 3.40643 
34.7651 7.2754 3.79616 
34.3894 -5.38149 5.18866 
40.1364 1.4645 4.97326 
39.6684 2.14134 5.77799 
37.4652 2.18567 7.53298 
38.1625 4.04447 8.19778 
36.5853 2.90142 8.72949 
37.896 4.80779 8.7386 
32.999 1.91154 12.085 
38.956 3.90317 1.01517 
33.1186 8.52044 0.983803 
34.8061 7.22448 2.53841 
38.0635 4.60687 3.18094 
33.1396 8.51239 3.29326 
34.8779 7.19974 3.88216 
31.5037 9.9896 4.02518 
40.7772 2.58891 4.54742 
33.5423 8.32969 4.54623 
37.0744 5.35541 5.12752 
34.8064 7.18258 5.2105 
36.6957 0.605123 7.11057 
35.7644 1.22554 8.256 
37.9465 4.73721 8.02911 
35.0165 7.07328 8.01404 
35.2048 7.04062 9.10041 
24.6655 2.4077 15.007 
34.8515 7.18784 0.507667 
33.4185 8.29668 1.64715 
34.8992 7.13911 2.55771 
35.0092 7.06094 2.25034 
39.5273 3.46735 3.22097 
38.7811 3.98451 3.17429 
34.9173 7.10007 3.11128 
31.7908 9.64614 3.15053 
35.0476 7.02528 3.71521 
35.1426 7.07827 4.32306 
35.1772 6.90715 5.26417 
36.8158 -0.609478 6.23247 
34.9664 6.9732 6.0277 
34.9861 6.96539 6.33408 
38.0626 4.71461 8.5528 
29.2068 -3.78541 10.406 
33.383 1.61524 11.6117 
33.4587 8.2615 2.37573 
34.3724 -5.99573 4.79352 
36.7832 -0.653991 6.23823 
36.2449 6.06302 6.00315 
35.1133 6.92254 5.76371 
35.5895 -0.123678 8.19091 
36.4391 6.02235 8.77366 
37.3098 5.31822 9.38853 
36.4709 6.00915 9.5 
36.4567 6.00535 10.1266 
36.4858 5.9941 10.5944 
33.3701 1.60581 12.2183 
40.7687 2.51801 1.80989 
36.5594 5.83974 1.80736 
32.2842 9.23114 1.81793 
32.242 9.25037 2.59121 
30.3896 10.8707 3.80678 
39.5084 3.46498 4.82961 
37.4326 5.22169 4.62205 
32.4628 9.20434 4.61699 
36.2971 5.98554 5.19159 
32.4462 9.20948 5.20476 
35.2186 6.80278 5.94115 
34.0516 7.87514 6.00282 
34.4903 -4.16092 6.80999 
35.1881 6.79868 6.67065 
34.0705 7.85928 6.66056 
38.8788 4.07535 7.41075 
34.3509 7.71171 7.81563 
34.9184 1.80942 9.34466 
35.0393 7.03761 0.477307 
35.0448 7.02041 1.82381 
32.2833 9.23325 1.78916 
29.8982 10.969 2.74883 
35.0171 7.00366 3.06365 
33.7999 7.9515 3.07941 
39.2659 -0.606425 3.78357 
35.1831 6.93847 3.8616 
33.8794 7.96348 3.77467 
32.4238 9.20057 3.86338 
35.2906 6.93935 4.58367 
32.5017 9.1759 4.58183 
32.4828 9.17242 5.2433 
36.6105 -0.516555 6.67746 
36.9639 5.44308 6.58159 
36.7308 0.792307 7.20368 
37.1949 5.39192 8.83164 
31.1884 -2.98435 9.19394 
37.5756 4.99832 0.547558 
40.0412 3.00953 1.11584 
37.6376 4.95168 1.01494 
33.834 8.00121 1.01758 
37.6047 4.93676 1.59179 
36.0921 6.20441 1.7388 
35.0373 7.01758 2.43336 
32.2668 9.23092 2.35964 
32.4352 9.18897 3.8483 
30.5052 10.7832 3.74442 
37.7004 -0.951262 5.39384 
39.609 3.44511 5.98761 
34.0182 7.91995 6.59074 
35.1794 6.93249 8.08144 
36.9157 2.99604 8.52499 
37.8354 4.86609 8.81201 
37.0893 5.47787 8.56266 
37.1339 5.44602 8.86084 
37.1535 5.4578 9.50355 
35.3773 6.88514 9.23382 
32.7625 8.828 0.667416 
37.7348 4.87163 0.928844 
34.3023 7.71942 1.31372 
38.9492 3.91012 1.81176 
37.0198 5.46436 1.75787 
34.0533 7.80904 1.75531 
32.7823 8.77781 1.70547 
37.002 5.45791 2.44644 
32.7775 8.77276 2.39084 
34.0127 7.79399 3.07458 
37.0394 5.44912 3.8006 
32.8204 8.84811 3.72757 
37.0278 5.44201 4.80604 
37.0154 5.40835 5.28402 
32.7952 8.872 5.17922 
34.2673 7.67061 5.89023 
32.8377 8.80562 5.70667 
39.5869 3.43571 6.59027 
34.2803 7.65976 6.75835 
36.7374 -0.759532 7.18406 
36.8044 0.754066 7.11121 
37.7177 4.80935 7.29212 
33.9824 7.66602 7.31554 
34.5919 7.39716 7.42098 
34.5595 7.50854 7.93045 
23.5784 2.275 15.8162 
31.9013 9.60371 0.606507 
35.1654 6.92182 0.979558 
34.1784 7.75736 1.13245 
31.8821 9.61254 1.13021 
38.8369 4.00391 1.82477 
35.1512 6.9214 1.76763 
34.209 7.68865 1.83583 
36.5959 5.78835 2.46214 
35.8307 6.33071 2.40941 
37.7385 4.79476 3.05326 
33.0575 8.56373 3.14363 
29.9827 11.1062 3.00739 
34.6046 7.44208 4.03456 
29.8197 11.0347 3.58655 
36.7154 5.79052 4.61327 
34.512 7.60476 4.46854 
31.9797 9.6452 4.51559 
36.6191 5.71158 5.29441 
36.629 5.70962 5.95674 
33.127 8.61583 5.98544 
39.3975 3.30297 6.73722 
36.7211 5.73583 7.31607 
35.1973 6.85607 7.4123 
34.1296 7.66266 7.2699 
36.767 5.73154 7.96938 
34.4623 7.6093 7.90785 
36.7465 5.79472 10.0558 
36.2855 6.02623 10.5636 
34.1377 7.74507 0.615233 
31.8681 9.63322 0.592541 
34.2359 7.72192 1.18855 
37.747 4.79405 2.38243 
37.3222 5.22891 3.79475 
33.133 8.59135 3.77132 
31.8317 9.68739 3.77911 
39.3028 3.2366 6.8107 
34.2032 7.66098 7.24707 
34.3828 7.59331 7.47713 
36.8439 5.66557 7.96257 
36.5795 5.42684 10.3912 
32.8802 2.01785 11.6211 
32.9679 1.9438 12.2332 
36.6431 5.80262 0.504883 
36.1122 6.2485 1.02544 
38.8004 4.01368 2.39025 
34.5392 7.40718 2.51946 
32.1093 9.37074 2.49294 
40.5893 -1.90041 3.07235 
39.9798 -1.20273 3.10386 
37.7611 4.76249 2.99386 
36.659 5.69084 3.20528 
34.5944 7.35646 3.20258 
32.0177 9.4543 3.14501 
30.5354 10.6681 3.15655 
30.6178 10.6868 3.71932 
30.8159 10.5592 4.00607 
38.999 3.98323 4.58522 
39.8552 3.19079 5.10645 
36.7105 5.63564 5.19082 
32.4105 9.24747 5.1661 
36.1151 6.17634 6.00936 
36.7058 5.63798 5.78863 
34.5492 7.39474 6.72198 
35.6384 -0.0644495 8.18376 
23.2368 4.74934 13.2147 
23.4598 4.77367 13.7416 
36.7258 5.75615 0.986142 
32.6901 8.88358 1.05533 
34.6186 7.37049 1.81765 
33.8181 8.00992 1.7671 
34.5941 7.37505 2.4991 
29.0984 11.6872 2.38863 
33.8218 8.00321 3.0823 
32.608 8.9333 2.99882 
31.1726 10.1673 3.20087 
29.1485 11.6685 3.0268 
39.5781 -0.80083 3.77639 
37.3762 5.19092 3.83907 
39.0054 4.01251 4.56092 
32.7005 8.98777 4.60465 
35.3743 6.67681 6.00606 
36.9374 0.952805 7.14008 
36.3337 6.12148 7.50554 
38.6843 4.23824 7.79894 
37.0008 5.52719 7.9971 
23.6027 4.50998 13.5829 
33.7812 8.02058 0.534185 
40.8555 2.41455 0.995116 
40.4969 2.72216 1.81602 
32.5651 8.98091 1.59972 
33.7494 8.07085 2.43994 
32.5415 8.9863 2.30632 
40.5738 2.67562 2.9277 
32.5437 8.98997 2.99241 
29.2126 11.6486 2.93736 
39.5013 -0.745132 3.73578 
39.5015 -0.679517 4.0757 
32.6898 9.01276 4.5357 
32.6335 9.01301 5.27191 
35.4074 6.64854 6.0176 
38.8171 2.63707 6.82935 
38.2069 4.62167 8.46889 
35.6029 6.62566 8.64297 
37.0083 5.46024 10.0197 
33.2624 1.7026 11.0104 
23.6741 4.37814 13.5035 
40.5354 -1.76951 0.600556 
35.4557 6.74264 0.466421 
40.3859 2.75581 0.991714 
32.7762 8.80866 0.994179 
35.4384 6.65958 1.78207 
31.8623 9.57106 2.64562 
40.9133 2.38651 3.21865 
36.9061 5.51631 3.22916 
31.8296 9.61448 3.1562 
30.0375 11.0875 3.14922 
36.9257 5.51554 3.70269 
34.8231 7.25249 3.87659 
33.0025 8.70034 3.76264 
31.7547 9.74652 3.73771 
34.8383 7.29073 4.62801 
36.2354 6.0381 5.17359 
35.5841 6.59794 5.32269 
32.9818 8.7072 5.30273 
39.2515 2.35435 6.26003 
35.5495 6.57255 6.03671 
33.2125 8.66195 6.39627 
39.1264 3.85763 7.15091 
35.6009 6.54726 7.44563 
37.5934 4.99283 8.03532 
36.5346 5.96354 9.38049 
24.4101 3.96332 13.603 
36.7268 5.72499 0.3982 
35.4857 6.67101 0.98014 
32.826 8.76414 0.976388 
37.7494 4.79651 1.79354 
34.8024 7.25909 1.65911 
31.7389 9.67122 2.72196 
36.7894 5.61176 2.98561 
35.3665 6.58984 3.05961 
32.7931 8.77942 3.06269 
30.3137 10.9683 3.79732 
35.7733 6.58663 4.4975 
32.8323 8.82416 4.76111 
34.7961 7.19531 5.20255 
32.9946 8.74651 5.90667 
36.4767 6.00516 7.40254 
38.2317 4.59449 8.44944 
35.7768 6.50373 8.82157 
24.4163 3.89224 13.5452 
24.8285 3.91938 13.8846 
23.0145 5.29765 13.8573 
38.8492 3.94205 0.60052 
35.8097 6.45689 0.964688 
35.0405 7.02743 0.984114 
35.6078 6.52069 1.83518 
35.8068 6.40662 1.59439 
35.0548 7.01318 1.77087 
32.3091 9.19405 2.33012 
35.7509 6.38002 3.33934 
34.2281 7.6266 3.12892 
32.3124 9.19402 3.03964 
31.1276 10.211 3.24644 
35.8368 6.41165 3.914 
32.3897 9.21892 3.77964 
31.2389 10.2114 3.9994 
39.8556 3.27117 4.55699 
35.3925 6.7958 4.73271 
32.4525 9.2148 4.55713 
34.4401 7.48678 5.2595 
37.5279 4.94625 6.61941 
35.2062 6.81931 6.6656 
33.5479 8.32574 6.60346 
34.6345 7.4427 7.96902 
37.8184 4.92556 9.05533 
31.1955 -2.36335 9.59446 
23.7089 4.36313 11.7215 
23.6466 4.33809 12.2825 
23.3717 4.52252 13.0435 
25.6017 3.23046 13.8054 
23.5252 4.31669 13.4885 
24.2441 2.65825 15.0752 
40.348 2.78202 0.388787 
36.8173 5.64765 0.52413 
34.2921 7.62881 0.608795 
35.0457 7.03764 0.382669 
32.3747 9.188 0.617394 
36.3181 6.0863 0.785601 
35.7631 6.49165 0.936282 
34.3574 7.59861 1.72391 
32.3504 9.17927 1.60761 
36.3337 5.99687 2.45671 
34.2428 7.6244 2.63062 
29.2204 11.6238 2.66875 
35.7299 6.39926 3.41579 
34.3977 7.56016 3.77478 
32.4078 9.19804 3.74188 
31.2139 10.2329 4.00257 
35.2276 7.04803 4.45416 
35.1443 6.92824 5.1845 
34.3511 7.55965 5.27373 
35.8635 6.38181 6.00753 
34.395 7.55142 6.59547 
36.9943 -0.942058 7.17979 
38.6757 4.21075 7.14118 
