ply
format ascii 1.0
comment Created by CloudCompare v2.11.1 (Anoia)
comment Created 2026/6/3 下午9:53
obj_info Generated by CloudCompare!
element vertex 1892
property float x
property float y
property float z
end_header
16.4435 -1.96676 4.98597 
24.5911 -14.8014 4.54888 
26.3885 -13.4132 5.81723 
26.369 6.80181 17.308 
27.4555 -14.3943 5.76602 
23.3969 5.66577 17.2116 
19.0027 -10.3851 2.62137 
26.7042 -15.2768 5.15379 
15.2156 1.7354 0.906793 
22.2182 2.74058 5.10898 
25.6059 3.24856 20.8637 
29.1951 -14.212 6.45005 
23.1647 -6.27368 7.61689 
24.7868 3.99387 13.7992 
17.2324 -8.59638 2.39622 
30.6609 -13.769 7.19973 
16.6104 0.96765 5.80518 
16.0041 -2.54154 2.52938 
15.809 -1.37223 3.88514 
16.1621 -4.66091 5.28998 
24.1204 6.39729 7.35798 
23.9837 6.40185 10.9048 
23.9784 6.40542 18.2691 
16.6018 -2.6521 2.7297 
27.7465 -11.6 7.15301 
25.9296 2.81061 7.50798 
25.9782 2.75057 5.93383 
25.9795 2.75178 6.50668 
26.0055 2.7521 7.15175 
26.0015 2.82542 14.195 
26.617 4.81617 17.9092 
26.3911 -17.6067 2.84927 
17.1733 -1.0632 6.0017 
25.3396 3.60736 14.2257 
25.323 3.63748 22.0524 
16.1969 2.84643 1.25029 
23.8363 6.28098 2.18963 
15.875 -3.6101 3.17536 
23.6161 4.48489 3.90228 
20.3655 -4.69465 7.0756 
24.0143 6.38648 14.406 
24.0129 6.39726 22.0036 
15.7168 2.35768 2.39872 
16.3161 2.25191 5.03563 
17.3009 2.40756 5.17477 
28.1592 -10.4115 7.82666 
25.3839 3.73013 21.8992 
15.4221 2.09363 3.40534 
15.5781 2.22963 3.10459 
18.0718 -6.40461 5.287 
24.6304 7.39313 15.013 
25.4144 3.77646 21.8226 
24.586 -15.8651 1.79377 
24.4028 -15.7183 2.5159 
16.0014 -3.13686 2.89409 
18.1315 -6.35303 5.33443 
18.8015 -5.17774 6.14531 
22.998 5.0742 18.9251 
22.9981 5.07527 19.6222 
15.875 2.50084 2.37391 
15.8657 2.50071 3.77928 
23.5907 5.94341 11.3901 
24.0181 4.40053 16.499 
24.1253 4.42267 21.9836 
23.5945 5.80558 9.44918 
26.2037 2.60299 7.34702 
22.591 -5.84547 7.56633 
24.1793 6.60682 2.62274 
24.1882 6.61041 3.18698 
24.1842 6.61004 3.749 
22.2055 -6.59124 7.05981 
22.4203 -4.59894 8.04127 
24.417 -15.7006 1.15546 
18.6098 -7.99064 4.85178 
24.7782 3.70656 7.60318 
15.7995 2.41738 1.82067 
24.5633 -14.5837 4.61507 
18.017 -6.66891 5.15266 
15.243 -3.78769 2.98229 
23.5756 5.79341 4.39929 
27.2149 -14.1886 5.7657 
14.7706 -3.42818 1.12245 
18.9826 -6.10149 5.80937 
17.1872 -0.62954 5.92408 
25.0699 8.10164 11.8014 
26.2348 2.65663 13.007 
19.3987 -2.22133 7.82729 
27.0478 4.40446 12.7231 
18.8283 -7.17373 5.296 
19.4335 -3.10454 7.38135 
16.0264 -3.60917 3.21266 
15.5791 -6.95971 3.78874 
27.1548 -16.0172 5.02746 
23.0314 -11.0773 5.3981 
17.6033 -0.38583 6.25789 
17.3717 0.840444 6.22095 
24.593 6.58466 9.3105 
15.8032 -3.8341 3.25332 
17.5973 -9.00043 3.81441 
24.6545 7.4011 10.2077 
17.7927 -6.812 5.00107 
16.5228 2.43784 5.00237 
24.9989 8.00772 10.88 
19.1697 -2.0245 7.82746 
23.2073 5.27665 13.6031 
24.8696 7.84887 16.4043 
24.4208 3.97484 7.54078 
14.9661 1.21334 1.21604 
19.8307 -11.1778 1.78076 
15.0924 -5.37871 4.38746 
19.3246 -6.0367 6.00105 
25.2794 6.7804 13.5951 
23.9927 6.41575 21.9938 
18.5717 -1.0097 6.80057 
24.5962 7.41412 22.6027 
27.8301 -10.1892 7.8091 
14.6823 -5.41707 1.20731 
20.6219 -11.9944 2.27314 
26.0729 -17.2829 1.55508 
26.0691 -17.2905 2.18399 
17.9745 -9.36949 3.27558 
25.9743 -17.2255 3.63173 
17.1098 -3.39329 5.99597 
24.3991 7.11244 22.5458 
21.7636 -13.0879 1.20746 
23.5424 5.75834 16.0012 
24.8005 4.26704 20.6077 
14.8041 -3.40376 1.56519 
14.9169 -3.10761 2.51661 
22.8758 -14.3649 3.92898 
14.9889 -2.9713 2.51148 
16.6095 -3.2143 3.07784 
22.9852 -14.524 3.9842 
15.5922 -5.19341 4.61366 
17.2498 -2.19195 5.54544 
21.3384 -10.4019 4.98501 
25.7905 2.98083 10.6675 
25.8451 2.92692 10.6016 
25.9112 2.87108 11.0525 
16.0313 -7.38387 2.40807 
16.322 -4.97824 5.2181 
17.3215 -2.90445 5.19349 
18.9819 -1.87674 7.7987 
24.6784 6.38097 8.74894 
24.5968 7.16964 8.76141 
25.8724 2.89996 10.5687 
24.5792 7.17445 15.9569 
24.5847 7.17724 16.6199 
26.6021 6.92644 17.4048 
24.5897 7.1799 17.2973 
16.5966 -3.96555 5.3999 
17.4057 -2.99403 5.29013 
23.9958 6.55661 19.0029 
21.2035 -11.6342 4.40214 
19.1007 -10.4033 0.684753 
18.7353 -10.1292 3.2001 
15.1982 -6.53172 3.65832 
17.6001 -2.59614 5.51653 
19.5236 -0.922374 9.01462 
15.1816 -6.53787 3.58098 
17.2045 -3.68962 6.07574 
24.5856 3.95011 14.4034 
22.4405 -13.7792 3.85644 
23.9754 -15.3159 2.60707 
17.9908 -4.26918 6.20859 
23.7776 6.08622 7.45808 
17.4489 -8.81481 3.74279 
23.704 6.06676 4.98301 
23.8263 6.14792 7.19181 
25.7938 2.96632 9.97131 
16.0065 -2.59952 1.04664 
24.0082 -15.33 1.93835 
23.581 -10.4231 5.95788 
18.0032 -4.24817 6.22255 
17.2732 0.604892 6.26838 
18.9597 -1.81381 7.84396 
20.5868 -11.9425 1.72849 
17.9929 -9.34346 1.8884 
14.8359 -5.99704 1.74289 
24.5927 7.16236 9.32914 
20.3988 -11.8048 3.13962 
29.796 -16.8566 5.64755 
25.0393 3.60061 7.32006 
25.0068 3.60157 10.9768 
22.2535 -13.3898 4.19808 
23.6049 5.796 13.0464 
22.7844 -14.1054 1.00338 
22.3185 -13.5896 3.88077 
19.8026 -5.18898 6.5896 
26.9958 4.44294 12.9532 
24.8019 4.0869 20.5878 
24.4824 3.99875 22.7437 
17.7202 -9.02848 1.13694 
20.6408 -11.9649 1.15405 
15.83 -2.60792 1.80301 
23.6918 5.96819 7.46862 
23.6992 -6.80636 7.61747 
21.4027 -12.7838 2.61359 
28.7885 -12.3499 7.16954 
22.529 -13.9154 2.48055 
14.5894 -3.65362 2.39376 
23.28 5.4604 2.44142 
15.1811 -4.7536 2.96464 
16.6089 -3.15379 3.04594 
23.2784 5.45896 3.21558 
16.9692 -8.23347 3.95612 
17.8389 -7.52438 4.72331 
17.3579 -3.17129 4.57554 
15.3411 2.20857 4.60524 
17.8542 -5.96759 5.39731 
16.4002 1.26496 5.58151 
24.952 3.85735 5.37635 
18.3461 -4.64826 6.18823 
23.2768 5.46077 5.97708 
20.7689 -5.33225 6.97754 
19.2033 -3.72966 6.95396 
17.671 -3.18761 6.59635 
18.0442 -0.861097 6.591 
24.8911 3.91885 6.65243 
23.2869 5.46744 6.65915 
23.2762 5.46378 7.40629 
24.8915 -6.57388 8.1904 
20.7523 -2.2923 8.32722 
24.9569 7.93888 8.19501 
19.4135 -0.928227 8.71416 
24.9668 7.94308 8.7765 
25.0526 4.08841 9.43825 
24.9382 7.90737 10.1247 
24.3197 4.03149 11.386 
23.2087 5.26328 15.1741 
23.2004 5.26183 15.7763 
24.9238 7.90791 15.6863 
24.6626 4.02809 17.8102 
24.9459 7.94672 18.5923 
24.9362 7.94397 19.3207 
24.808 4.07527 19.7945 
15.3956 -0.716007 1.28979 
22.6097 -13.9521 1.64117 
22.5529 -13.9215 2.36739 
14.7881 -4.65295 2.73011 
15.3254 -2.733 2.39255 
15.4271 -0.747511 2.612 
25.1246 -15.6671 4.42212 
18 -7.49752 4.80006 
15.2704 -0.765699 4.53258 
23.2896 5.46997 4.6149 
19.432 -8.06075 5.18675 
17.7789 -5.89997 5.39441 
16.4943 -0.801849 5.40473 
16.1921 2.41346 4.92735 
18.227 -2.05885 6.19688 
19.5466 -5.03371 6.55561 
20.8601 -5.41521 6.98158 
19.1116 -3.63165 6.95636 
17.6855 -3.21555 6.58488 
24.8215 4.00075 6.69837 
29.5949 -13.0451 7.12556 
26.4076 -9.29183 7.66257 
24.9382 -6.65204 8.17823 
19.3983 -2.26273 7.78969 
20.8442 -2.3808 8.32286 
24.6465 3.91314 14.3648 
24.9012 7.88688 16.6152 
24.9117 7.89274 18.7256 
24.8914 7.88615 19.4505 
24.8824 7.88394 20.3935 
24.8687 7.87972 21.168 
24.7051 3.93489 21.9989 
24.8449 7.87264 22.7917 
19.7488 -11.0752 1.13768 
23.9628 6.45815 1.00594 
15.5314 -6.86503 1.84383 
14.551 -3.9757 1.56473 
14.8991 -3.23217 1.80228 
14.9298 0.545484 1.70511 
15.1577 1.62888 1.8162 
15.5307 -6.87599 2.39278 
14.7895 -5.20482 2.63414 
14.7651 -4.43458 2.71748 
15.4974 -0.302813 2.39696 
14.9322 0.547112 2.38886 
24.3111 6.55907 2.3892 
15.1311 -4.56623 2.943 
15.1798 -0.321176 3.20797 
15.2329 1.77462 3.25255 
19.2807 -10.6431 4.08268 
15.8733 -4.66184 3.84845 
15.651 -1.14529 3.79089 
15.1199 -0.332052 3.90874 
14.8914 0.581209 3.80841 
23.2555 -13.2197 4.63332 
21.2622 -11.9651 4.29897 
18.6134 -8.84299 4.51413 
16.2202 -5.8932 4.76827 
16.926 -2.63853 4.59796 
14.9952 -0.388207 4.64728 
16.4317 2.95447 4.33133 
16.9484 2.99587 4.77321 
26.1557 -15.1229 5.01084 
21.9949 -10.7534 5.11041 
19.7411 -7.52565 5.55537 
17.2912 -6.37744 4.99683 
18.3722 -6.72894 5.28486 
16.6454 -5.12084 5.28333 
15.8404 -1.06599 4.9607 
15.3134 -0.239756 4.94521 
16.2319 -0.431415 5.42364 
15.607 1.62897 4.99536 
17.0988 1.864 5.49479 
24.1929 6.46836 5.31374 
28.0186 -13.7718 6.25037 
21.3458 -8.14215 5.98597 
17.8553 -5.1487 5.76708 
17.8049 -2.61637 5.96865 
23.488 4.56505 5.91314 
22.959 -8.73458 6.45443 
20.444 -6.01783 6.50205 
19.7894 -4.43898 6.92277 
18.489 -3.98844 6.53756 
18.4939 0.812763 6.53242 
20.5551 1.05431 6.71392 
25.6786 3.01249 6.68474 
24.9128 6.77064 6.68116 
29.9583 -12.1283 7.67811 
24.2228 -7.45341 7.55105 
21.0821 -4.65371 7.41738 
18.4801 -1.74917 7.40179 
26.9701 -8.59702 8.16975 
22.9026 -5.15051 7.98979 
21.9081 -3.829 8.15241 
20.2623 -3.01768 7.8029 
25.6934 3.0166 8.10308 
23.5149 4.58068 7.99356 
24.6308 6.51097 8.92431 
24.5959 6.66866 9.49041 
24.4456 6.63311 10.3213 
25.7129 3.0252 11.5712 
25.78 3.03544 12.1813 
23.6344 4.61207 12.3029 
25.7152 3.10669 13.6877 
23.6659 4.60734 13.6015 
24.9993 6.80983 13.7144 
24.1098 6.52206 14.3374 
25.675 3.19093 16.5661 
24.2999 6.45125 17.2797 
25.6872 3.19473 17.9412 
23.6711 4.63418 17.7545 
24.1538 6.42324 17.8857 
25.6606 3.19318 19.3638 
23.6742 4.62152 19.1192 
25.6532 3.1935 20.1067 
24.3356 6.53757 19.7745 
23.6906 4.6268 20.5755 
24.3327 6.53722 20.5223 
25.6987 3.14472 21.2936 
23.6845 4.6335 21.3306 
24.4041 6.44895 21.3233 
25.6489 3.19567 22.0723 
23.6814 4.62649 22.1116 
24.1016 6.52489 21.9387 
25.5578 3.18414 22.8388 
23.6566 4.62173 22.9048 
19.9325 -11.2327 0.765088 
19.7829 -11.1094 1.22012 
14.7121 -5.34126 1.56058 
14.9186 0.63288 1.68739 
23.9645 6.45909 1.83525 
14.7537 -4.3254 2.71117 
15.0697 -3.26966 2.61505 
16.6139 -2.50636 2.43187 
14.9227 0.634646 2.37085 
15.7208 -3.40651 3.00238 
16.8794 -2.5983 3.11681 
19.1984 -10.65 4.05661 
15.0932 -5.43099 3.70676 
15.7191 -1.26397 3.77959 
23.1845 -13.2545 4.59386 
21.1764 -11.9613 4.2682 
18.7288 -8.78939 4.5826 
16.369 -7.32889 4.24897 
16.1775 -5.90994 4.74297 
15.899 -4.64944 4.61263 
16.872 -2.5908 4.57772 
14.8331 0.633945 4.60159 
16.9101 3.03299 4.74294 
26.0637 -15.1472 4.96605 
22.1208 -10.6783 5.19885 
20.4703 -9.56971 4.97076 
18.3847 -6.83528 5.24606 
15.8825 -1.20135 4.93058 
16.2583 -0.366469 5.4723 
15.5914 1.68513 4.96555 
24.4254 -11.6774 5.77144 
19.1944 -5.75095 6.05681 
17.8655 -5.23252 5.73146 
17.7491 -2.68719 5.94077 
25.5885 3.10211 6.00689 
25.6449 -10.1998 6.92686 
23.0146 -8.88578 6.40933 
18.4925 -4.07889 6.50229 
24.1466 -7.48508 7.50213 
21.1029 -4.76258 7.37844 
25.6372 3.07066 7.40917 
22.8796 -5.24252 7.94525 
21.952 -3.66516 8.22941 
20.2597 -3.10023 7.76766 
23.9782 6.46057 7.99417 
19.1888 -1.62008 8.55709 
24.5987 6.56775 9.01112 
25.6362 3.11383 9.40858 
23.5658 4.58112 10.0563 
23.6054 4.57673 10.8116 
24.0373 6.47953 10.7609 
23.6624 4.59879 12.2565 
23.6934 4.59599 13.6253 
25.0282 6.79238 13.8185 
25.6953 3.13453 14.4205 
23.6823 4.60614 14.4494 
23.7068 4.60838 15.7865 
25.5961 6.95003 16.6444 
25.7065 3.18056 17.1919 
25.6669 3.17706 18.5713 
23.7156 4.62025 18.3855 
23.703 4.61489 19.7793 
25.6973 3.15733 21.4175 
24.3673 6.50013 21.2368 
25.6709 3.18322 22.2133 
23.9611 6.46004 22.5686 
15.7634 2.41731 0.646823 
15.242 -3.03704 0.936596 
15.5725 -0.987159 0.972912 
24.202 -15.5031 1.71112 
17.6852 -9.02566 1.87058 
15.5148 2.2239 1.65298 
15.5283 2.227 2.36613 
23.0712 5.16327 2.43566 
14.5937 -5.90315 3.26527 
17.2051 -3.23213 3.33966 
24.2416 -15.603 4.08404 
23.4388 -14.9364 3.81757 
17.9036 -9.25613 4.06016 
17.0296 -8.51662 3.97059 
15.4684 -5.07784 3.82759 
14.9312 0.308322 3.84539 
27.8101 -18.0758 4.51334 
21.3687 -11.5437 4.50433 
19.8565 -10.1761 4.45246 
15.7223 -6.37032 4.37577 
17.3251 -3.25407 4.54957 
15.3331 -0.823916 4.4423 
15.584 -1.07201 4.64858 
14.6632 0.329839 4.66338 
14.9665 0.303857 4.61333 
14.661 1.17586 4.66579 
22.8163 3.43517 4.60793 
26.1065 -14.4167 5.28325 
23.6035 -12.244 5.15949 
20.6757 -8.71272 5.44074 
19.2181 -8.09077 5.08127 
16.3768 -4.3263 5.19441 
17.3 -3.27398 5.16196 
15.8472 1.05716 5.30795 
24.767 3.85977 5.19265 
25.3686 3.87934 5.45736 
23.0554 5.0577 5.18963 
22.3414 -9.44801 5.84751 
20.0055 -6.82624 5.96329 
16.5433 -4.29542 5.64582 
17.2847 -3.26624 5.89442 
17.8883 -2.46638 5.95313 
16.9994 0.263336 6.13373 
19.1119 1.53559 5.84411 
25.3992 3.88686 6.01909 
23.0701 5.1112 5.93798 
24.6644 7.37081 6.0131 
27.8858 -12.5915 6.73771 
22.8865 -8.24671 6.63874 
19.3577 -5.09252 6.43329 
20.6767 -5.49211 6.85364 
17.3625 -3.08507 6.49442 
17.969 -2.39423 6.58062 
17.8609 -0.929922 6.464 
23.0678 5.07184 6.60012 
25.3884 -9.31864 7.21801 
21.092 -4.19251 7.63132 
18.8455 -2.43249 7.45289 
24.6564 7.36809 7.18077 
29.6201 -10.8738 8.13377 
24.1392 -6.78442 7.80367 
22.8281 -4.72242 8.14369 
20.5723 -2.4758 8.1646 
19.24 -1.00963 7.94012 
19.6047 -1.12075 8.35398 
24.7041 7.4858 8.11913 
25.4784 3.80223 8.84282 
24.6623 7.36097 8.8487 
25.4773 3.80267 9.41254 
24.6613 7.36032 9.4204 
23.0798 5.07618 10.2168 
24.7032 7.48303 10.7352 
24.6539 7.46495 11.5821 
23.0578 5.16494 14.338 
25.5635 3.82571 16.437 
24.654 7.35538 17.1016 
24.8151 3.93313 17.9075 
25.4565 3.80944 17.7467 
24.6452 7.35217 17.7854 
24.6464 7.45807 18.5085 
24.7119 7.3733 19.2527 
25.3484 3.89455 21.7952 
26.2875 4.13077 22.0163 
14.986 0.1751 0.61646 
14.9105 1.03145 0.6143 
15.611 2.29075 0.655178 
15.2512 -2.94083 0.91679 
24.1979 -15.5004 1.62105 
14.9932 0.184178 1.84989 
24.6741 7.49256 1.76854 
15.2093 -2.91793 2.40115 
15.4901 2.18748 2.3313 
24.2347 -15.54 4.1357 
23.5997 -15.0418 3.70904 
16.929 -8.50441 3.95452 
16.0681 -4.18832 3.60596 
15.5609 -0.966387 3.61097 
14.9472 0.192769 3.85288 
19.7317 -10.18 4.40216 
15.2554 -5.14965 4.67108 
15.5114 -0.963843 4.75427 
15.011 0.193828 4.61725 
22.7832 3.43616 4.64326 
26.1697 -14.3168 5.35027 
23.5414 -12.3924 5.07165 
20.5979 -8.79817 5.36719 
19.1112 -8.10578 5.02853 
18.4657 -6.47263 5.43648 
17.2285 -5.87568 5.18768 
16.2768 -5.29982 5.07727 
16.402 -4.29925 5.1747 
24.5237 -10.8362 6.1768 
22.3277 -9.61709 5.7628 
21.2123 -7.51938 6.20659 
19.8972 -6.85218 5.90292 
16.6169 -4.33204 5.65881 
17.4054 -2.15509 5.63385 
17.958 -2.35598 5.95931 
16.3963 0.201243 5.73141 
25.4024 3.89378 6.05477 
24.7149 7.44519 6.0486 
19.2632 -5.12192 6.37212 
20.585 -5.53056 6.78967 
18.0412 -2.29756 6.54622 
17.787 -0.966245 6.40614 
25.4168 3.89686 6.6174 
24.7133 7.44387 6.61671 
25.4469 -9.25917 7.27129 
18.8621 -2.39731 7.48058 
24.6987 7.43178 8.89198 
24.6937 7.42928 9.46482 
24.7546 3.73671 11.6108 
24.6996 7.4267 13.0027 
25.5545 3.87687 13.6003 
24.698 7.4253 13.6152 
25.3683 3.84508 14.1595 
25.6088 3.88907 16.3362 
24.6917 7.41988 16.3304 
24.6879 7.41768 17.0009 
24.6843 7.41557 17.686 
23.0498 5.16439 18.4198 
24.6749 7.46426 18.3931 
24.6756 7.41005 19.1065 
23.0514 5.16462 19.8076 
24.6901 7.39896 20.4204 
24.7686 3.83898 22.2448 
25.2873 3.88857 21.8069 
26.3755 4.1144 21.9172 
18.6256 -9.92479 0.659789 
15.3031 -6.56976 0.622455 
14.5437 -3.7792 0.651079 
14.5211 -3.82948 1.23224 
14.5133 -3.84593 1.85808 
24.4238 7.13982 1.75735 
15.636 -3.03734 2.75023 
16.5386 -2.31063 2.38533 
24.6489 7.33784 2.63954 
15.6333 -4.39421 3.34975 
17.1845 -3.38633 3.41472 
15.0795 -0.0998718 3.2172 
14.9164 1.01341 3.21099 
24.6468 7.33478 3.22142 
25.6749 -16.9261 3.92809 
17.1707 -8.80058 3.92383 
14.8196 -6.08007 3.91298 
15.2261 -5.30313 3.86565 
15.0219 0.0659826 3.83784 
15.2571 1.90909 3.78199 
22.0103 -12.2822 4.47303 
20.2684 -10.7083 4.40325 
18.4639 -8.04928 4.76721 
17.1499 -7.29088 4.54228 
15.7562 -6.56056 4.31198 
15.5049 -5.20728 4.58738 
17.179 -3.40916 4.44239 
14.9747 0.0545287 4.62507 
23.0189 5.03077 4.60082 
28.2688 -15.8174 5.4994 
24.4208 -13.4933 4.99916 
19.4858 -8.59507 4.99722 
18.6766 -6.59311 5.47725 
17.741 -6.06126 5.3042 
15.9026 -4.47834 5.26273 
17.1692 -3.40519 5.1219 
15.8136 0.065582 5.28251 
24.9121 3.66807 5.2216 
25.5398 -11.6424 6.23579 
23.3722 -10.4595 5.84232 
21.7773 -8.1403 6.18148 
20.0575 -7.32675 5.77278 
17.115 -4.49962 5.76334 
16.913 0.118149 6.05125 
25.3054 3.76048 6.07727 
30.3889 -14.1967 6.90314 
20.673 -6.00981 6.61587 
19.3772 -5.28081 6.35622 
17.8465 -3.53656 6.49554 
18.693 -3.7871 6.70705 
17.8298 -1.06701 6.37651 
17.4153 0.133853 6.34958 
25.3112 3.76189 6.63689 
24.6201 7.31206 6.64151 
26.2195 -9.9668 7.28166 
17.9811 -2.30926 7.08823 
19.0802 -2.59845 7.4706 
24.74 -7.30983 7.8531 
20.5128 -2.65487 8.06491 
24.4494 7.13002 8.26581 
24.6099 7.33006 7.93911 
19.0457 -1.14757 8.79066 
25.452 3.76157 8.89416 
19.1358 -1.07521 9.25647 
25.4495 3.76153 9.46312 
25.3537 3.67499 10.5691 
24.6477 7.33031 10.6705 
24.8465 3.66094 11.6464 
24.3929 7.10227 11.6794 
24.6172 7.28104 13.604 
24.4393 7.11013 15.0259 
25.5018 3.74319 16.4231 
24.633 7.27609 16.2339 
23.2134 5.15964 18.4343 
24.3944 7.08429 18.6851 
25.5329 3.67142 19.9429 
23.2204 5.16011 19.8319 
24.7855 7.305 21.2725 
24.5938 7.23914 21.9444 
24.9119 3.67935 22.7862 
14.5034 -3.84073 0.638381 
15.6082 -0.999054 0.655262 
26.415 -17.6005 1.19024 
14.6136 -5.02646 0.991739 
15.0516 -0.0435913 1.82822 
25.9859 -17.2188 2.58582 
15.0377 -6.37507 2.49556 
15.0106 -5.12675 2.78011 
15.6135 -1.02066 2.3323 
25.7914 -17.0349 3.3341 
15.291 -5.24769 3.22034 
17.1584 -3.43658 3.43497 
15.5989 -1.01264 3.02838 
14.9084 0.980514 3.21629 
25.7122 -16.955 4.05607 
18.6508 -9.92617 4.03415 
17.2916 -8.94867 3.90849 
16.0118 -4.43077 3.72057 
16.4595 -2.18551 3.81224 
24.5991 7.26996 3.81954 
22.1472 -12.1996 4.55766 
20.2803 -10.795 4.37719 
18.3468 -8.00153 4.73315 
15.8239 -6.65669 4.29698 
15.5264 -5.26694 4.67279 
14.6282 0.990778 4.67482 
22.9945 4.98239 4.61371 
28.1673 -15.7603 5.48701 
24.4586 -13.4901 5.0146 
21.2932 -9.46389 5.37074 
18.782 -6.65336 5.49764 
16.3517 -2.15446 5.07094 
22.9992 4.9804 5.14335 
24.5999 7.26927 5.46703 
23.2589 -10.4669 5.785 
21.7954 -8.03322 6.24021 
20.1466 -7.29957 5.82426 
18.3827 -5.04203 6.02859 
17.7952 -2.36693 5.82348 
20.9319 1.46212 6.21078 
22.9956 4.95871 5.90514 
24.5758 7.24999 6.09084 
23.9678 -8.757 6.84942 
20.776 -5.94899 6.69254 
19.4342 -5.36026 6.34826 
17.6871 -3.53437 6.43713 
24.5734 7.24615 6.65391 
22.5364 -6.52789 7.22439 
21.3383 -4.53148 7.60367 
19.0285 -1.20117 7.45701 
24.5644 7.25006 7.86388 
24.5869 7.23745 8.91207 
19.0501 -1.14984 9.17942 
24.5922 7.23614 9.482 
23.0662 4.98605 10.2709 
24.9635 3.64216 11.0481 
23.1367 5.04862 12.4 
23.1537 5.06382 14.1739 
25.0011 3.6171 15.0271 
24.4534 7.10785 14.9174 
25.4389 3.67544 17.43 
24.6088 7.16519 17.135 
24.9717 3.64134 18.6216 
23.2198 5.05257 20.6106 
24.8376 7.25475 20.5271 
24.8423 7.25523 21.3141 
24.5672 7.16063 21.9289 
24.8151 3.59083 23.1737 
21.8102 -13.1682 1.71499 
15.2369 -0.402082 1.88046 
23.6258 5.97477 1.85739 
21.8169 -13.1841 2.30554 
14.6389 -3.69632 2.36166 
15.2354 -0.395315 2.57506 
15.7832 2.4542 2.30813 
14.8222 -5.85776 3.23116 
15.2271 -0.388472 3.24829 
20.6006 -12.2335 3.96791 
14.8213 -5.85452 3.88844 
15.988 -1.69104 3.77131 
14.9215 1.25828 3.93653 
15.7564 2.44741 3.70919 
23.6383 5.88656 3.78369 
25.6204 -15.8842 4.5334 
22.7826 -13.6544 4.29136 
14.9337 1.26013 4.60523 
15.6532 2.38832 4.48148 
16.4881 2.67457 4.85793 
24.1937 4.08666 4.66486 
23.6221 5.86063 4.48193 
22.0888 -10.8637 5.10343 
19.2526 -7.96316 5.14796 
15.8078 -0.476685 5.15059 
21.6663 2.19577 5.52727 
23.6128 5.83968 5.25802 
27.513 -14.3585 5.81044 
19.9743 -6.66954 6.01262 
17.3679 -3.13536 5.9525 
20.5712 -5.31158 6.88838 
17.7591 -0.496553 6.58861 
18.3247 0.554925 6.55256 
20.2384 0.567641 6.94308 
24.0238 4.25707 6.60713 
23.6164 5.85083 6.61089 
25.0661 8.08017 6.69754 
28.7613 -12.2679 7.20414 
18.5905 -1.82564 7.46921 
19.5127 -0.544899 7.3813 
26.0936 2.68437 7.43433 
25.0464 8.06082 7.41742 
21.3924 -3.87267 7.90881 
26.1053 2.68495 8.15528 
25.0425 8.06574 8.14802 
26.1154 2.68728 8.73427 
24.1899 4.09358 8.48929 
25.0477 8.06454 8.73169 
25.0431 8.05979 9.31686 
26.125 2.70289 10.0695 
23.6048 5.81787 10.191 
24.0717 4.29743 10.7509 
23.6091 5.83515 10.7377 
25.0124 8.0373 11.0312 
23.6189 5.81474 12.9777 
24.9963 8.0239 12.9092 
27.6852 4.94024 13.3905 
23.6167 5.81267 13.5552 
25.0114 8.02617 13.5362 
24.7366 4.35128 14.1588 
24.9969 8.0176 14.1632 
26.174 2.70739 15.1231 
26.1866 2.71019 15.7848 
26.1979 2.71341 16.4594 
25.0028 8.0358 16.5074 
26.1929 2.71404 17.141 
26.21 2.71747 17.8483 
26.2105 2.72048 18.5649 
23.5742 5.83123 18.5783 
26.2187 2.72294 19.3037 
24.8368 4.30454 20.5338 
24.2713 4.25198 22.1157 
24.062 4.17658 23.1698 
23.5907 5.92611 0.992426 
21.8565 -13.21 1.59962 
23.5875 5.92182 1.9754 
21.7971 -13.1601 2.21047 
15.9617 -1.67561 2.38876 
15.2961 -0.514065 2.59094 
21.3871 -12.8004 3.31745 
15.2856 -0.506429 3.26326 
17.2283 -8.33096 4.10779 
22.8852 -13.7621 4.2909 
18.6598 -9.02223 4.45894 
15.6885 2.4655 4.36984 
16.374 -5.17205 5.16105 
16.4308 -0.534531 5.51857 
17.4472 -3.03878 5.9868 
17.0143 0.405853 6.13718 
26.0623 2.70284 6.6238 
25.1274 8.17411 6.82472 
19.7437 -3.39731 7.38338 
18.6008 -1.88375 7.48461 
19.4829 -0.621621 7.34193 
24.0608 4.24873 7.41383 
20.0846 -2.01564 8.22239 
25.0419 8.09343 12.9069 
24.6477 4.31893 14.2042 
25.0425 8.08328 14.1635 
26.1555 2.72419 15.2357 
26.1684 2.72721 15.8994 
26.1711 2.73078 17.2584 
26.1007 4.59442 17.4769 
23.5677 5.78295 17.1831 
26.1918 2.73483 17.97 
24.998 8.03387 18.1377 
26.1924 2.73729 18.6895 
24.2015 4.26431 18.6613 
26.2003 2.7399 19.4313 
23.4609 5.74385 19.1559 
26.2125 2.74601 20.3885 
24.9632 8.00253 20.391 
26.2113 2.74765 21.1736 
26.1895 2.74689 21.9694 
24.2624 4.23098 22.2551 
26.1793 2.74392 22.798 
15.6773 -1.10498 0.632497 
14.7091 -5.29408 0.964193 
24.1099 6.67956 1.02042 
15.1553 -0.267941 1.85296 
14.8308 0.865418 1.78439 
19.0069 -10.3856 2.45083 
14.6014 -5.10896 2.42273 
15.6193 -4.55979 3.33545 
16.9404 -3.60434 3.43157 
24.3904 6.75117 3.82619 
17.2051 -7.49431 4.48425 
15.6652 -5.42618 4.70738 
19.1348 -7.24844 5.4041 
16.6703 -5.86904 4.96568 
16.9568 -3.61906 5.18459 
16.3347 -2.21635 5.06185 
16.8883 2.18633 5.25523 
25.1462 3.42929 5.19045 
24.144 6.65469 5.13689 
24.7286 6.88351 5.45244 
20.7123 -7.46495 6.0002 
17.2087 -4.73169 5.69194 
17.7886 -2.46256 5.80873 
25.3944 3.25348 6.04637 
23.3037 4.70291 5.8762 
24.7768 6.86183 6.04756 
24.7688 -9.39307 6.91182 
22.3228 -8.11387 6.44862 
21.3252 -6.09294 6.88771 
17.7345 -3.6331 6.40799 
19.1005 -3.84186 6.85632 
17.9078 -2.46584 6.54094 
17.6995 -0.261039 6.52398 
20.6246 1.1589 6.72383 
25.4119 3.23819 6.70676 
23.3682 4.6633 6.61965 
24.7844 6.86596 6.71367 
22.7722 -6.6451 7.2772 
20.1239 -4.37636 7.10999 
18.0438 -2.4415 7.10028 
19.2926 -2.66925 7.52616 
19.7576 -0.0962427 7.34207 
24.9363 -7.34367 7.92351 
22.0075 -4.59606 7.87204 
20.8253 -3.09783 7.99505 
18.7572 -1.35741 7.8276 
25.131 3.42806 8.24079 
25.4225 3.24085 7.89881 
24.6892 6.78238 8.96723 
19.1318 -1.26361 9.15341 
25.4374 3.2629 9.42008 
23.3765 4.70835 9.48492 
24.6799 6.81863 9.53567 
24.7359 6.85935 10.0006 
23.457 4.67691 10.8179 
24.0567 6.60581 11.6031 
24.9032 6.87223 13.0002 
25.5047 3.27806 13.652 
23.519 4.68378 13.6083 
24.8418 6.94266 16.4488 
24.9785 6.87254 17.0776 
24.2068 6.59666 17.9727 
24.7478 6.90694 17.7641 
25.7988 7.20399 20.2762 
25.5654 7.15191 20.8164 
25.5398 3.29787 21.2371 
25.7587 7.19174 21.9526 
22.8894 -14.2088 1.15834 
14.6565 -5.90428 1.21843 
22.8025 -14.1453 1.8321 
15.2885 -0.479101 2.64959 
14.7567 -5.78294 3.30929 
17.7056 -8.88239 4.11882 
16.4928 -7.97328 3.88406 
17.0827 -8.33517 3.81807 
27.5296 -17.1495 4.75023 
20.794 -10.7221 4.61251 
25.3882 -13.2018 5.5182 
22.9767 -11.5422 5.17642 
15.3452 0.396335 5.02172 
29.8215 -15.6463 6.1461 
21.3598 -8.80362 5.69643 
17.0356 0.398831 6.16047 
26.2681 -11.5073 6.59956 
18.9571 -3.42087 6.98438 
31.0193 -13.776 7.3396 
26.9452 -9.38837 7.8297 
19.2752 -2.18487 7.76825 
19.2857 -0.96822 8.74306 
19.2697 -1.03347 9.26293 
24.3977 4.02903 10.7911 
23.299 5.50382 10.8278 
24.9705 7.97767 11.0588 
23.2997 5.49287 11.6013 
24.8587 4.11929 12.2093 
24.8728 4.10578 13.0394 
24.8496 4.09123 16.9596 
24.7448 7.54803 19.3165 
24.7901 4.08292 19.721 
24.818 7.47238 20.0443 
22.9686 -14.29 1.24845 
14.9765 1.235 0.983188 
15.4892 -0.816088 2.01181 
22.3775 -13.7752 3.24324 
15.1639 -3.78499 2.92735 
15.3646 -0.640937 3.263 
21.9421 -13.4326 3.97369 
16.565 -8.05477 3.94409 
17.0099 -8.33728 3.67321 
27.5765 -17.2578 4.72659 
24.1819 -14.9017 4.37637 
20.8808 -10.6834 4.66588 
19.1747 -9.67299 4.40018 
15.5669 2.40164 4.32855 
22.9958 -11.6861 5.12305 
19.8171 -8.22652 5.28924 
16.1299 0.393151 5.5691 
24.7968 3.99913 5.30182 
29.712 -15.6492 6.10061 
23.4578 -10.0824 6.05506 
21.4645 -8.91551 5.69309 
17.2443 -0.794078 5.995 
26.2543 -11.3765 6.65294 
21.9859 -7.41585 6.61128 
31.1003 -13.6914 7.40784 
20.6221 -2.40045 8.22622 
19.3387 -0.918404 9.31769 
24.6125 4.01017 14.3436 
24.8409 7.79162 15.0198 
24.8457 7.81277 15.8897 
23.2292 5.3535 16.3907 
24.736 7.62383 18.6682 
24.7794 7.61701 19.4215 
24.7629 4.08175 21.1985 
24.6532 4.00549 21.9621 
23.2125 5.30888 21.9725 
24.4535 4.02139 22.5841 
23.2058 5.30123 22.7722 
15.5814 2.28411 0.632705 
16.2708 -1.95927 0.964623 
24.9387 7.89002 0.977252 
23.9272 -15.2475 1.71444 
23.5117 -14.8677 2.46816 
23.5126 -14.8837 3.10926 
15.1571 -4.97687 2.94754 
23.0741 -14.548 3.80837 
23.2289 -14.5651 3.90414 
16.32 -4.12911 3.74415 
24.6994 7.48283 3.81282 
26.2033 -16.7713 4.42608 
15.8104 -6.52504 4.34435 
24.6985 7.48234 4.39544 
20.7489 -8.82981 5.4218 
17.3167 -5.81593 5.24375 
17.378 -3.18635 5.16628 
24.2983 3.98672 5.07027 
25.4487 3.97782 5.49811 
22.7511 -9.60588 5.9603 
16.6692 -4.08473 5.80233 
17.3038 -1.86406 5.72551 
23.3662 -8.05737 6.9206 
18.3822 -3.2414 6.8394 
25.3967 3.88097 6.6386 
21.9085 -5.92208 7.23578 
20.754 -3.99629 7.56104 
18.7366 -2.27493 7.47587 
19.1679 -0.936794 7.29625 
23.2238 5.38774 7.43143 
24.0644 -6.57246 7.85589 
22.7767 -4.48938 8.21326 
24.7197 3.743 7.87086 
24.838 3.82766 10.855 
23.2224 5.39321 10.8343 
23.1861 5.34154 11.6155 
24.6691 7.37427 12.4194 
24.6666 7.36653 13.0217 
26.9111 4.3284 14.0959 
25.4562 3.85306 17.4459 
24.6441 7.29656 16.9968 
24.7129 3.97757 17.8158 
27.1488 4.39476 21.3131 
26.4096 4.54463 22.1209 
24.4013 7.14194 22.6149 
23.9276 -15.2422 1.59121 
14.5013 -4.74962 1.82171 
24.8649 7.77614 1.74175 
23.5462 -14.9004 2.3382 
17.3722 -8.75285 2.66457 
16.2237 -1.93603 2.43417 
23.2362 5.39682 2.47493 
23.4284 -14.7979 3.004 
23.2728 -14.581 4.03339 
23.2225 5.38052 3.79981 
24.6084 3.81256 4.57156 
20.8243 -8.84563 5.44911 
17.3608 -5.78606 5.27179 
25.4862 4.023 5.50073 
19.9181 -6.68161 5.98839 
16.613 -4.13251 5.76102 
23.206 5.35683 5.87766 
21.4071 -7.22893 6.42995 
19.2222 -4.97477 6.41368 
18.3197 -3.30603 6.78577 
18.1503 -2.1552 6.51128 
23.2249 5.3826 6.65555 
25.6575 -8.84896 7.56399 
19.5305 -3.72937 7.11951 
20.8118 -3.96104 7.603 
18.1402 -2.18592 7.07887 
23.1933 5.33912 7.41895 
19.4071 -0.937996 8.0745 
24.6337 3.81476 7.79027 
23.166 5.31268 9.48702 
23.178 5.33555 10.2235 
24.7962 3.8895 10.7906 
23.1812 5.33265 10.813 
25.5915 3.98352 12.4004 
24.7209 7.45557 12.4358 
26.9649 4.37998 17.4277 
24.5906 7.39046 18.552 
24.7232 7.40728 21.2061 
26.502 4.38372 21.9939 
24.8705 7.79538 0.875064 
14.7607 -6.01091 1.44894 
17.4085 -8.79051 2.70836 
15.2685 -2.85468 2.3968 
23.3863 -14.755 2.95137 
15.4837 -0.829385 3.58939 
24.7746 7.64249 3.80779 
14.7692 -5.87593 4.26342 
24.7727 7.6343 4.38579 
16.5848 -4.15641 5.74037 
25.4827 4.01882 6.07019 
23.1954 5.34087 5.87378 
24.7603 7.60135 6.09565 
21.3843 -7.25701 6.40851 
19.1682 -4.96031 6.39249 
17.2029 -3.12585 6.38967 
25.5004 4.02089 6.63258 
18.6425 -2.18314 7.47234 
22.7032 -4.35587 8.23551 
19.924 -2.37218 7.9489 
24.4618 3.89272 8.21944 
24.7737 7.60195 8.07706 
25.0786 4.00236 8.82022 
25.0718 3.9921 9.41398 
25.6157 4.02815 12.4036 
24.7828 3.86639 18.4989 
24.6788 7.39725 19.7396 
27.1984 4.35067 21.4012 
24.4224 7.21514 22.6583 
20.4162 -11.7388 1.0405 
14.5123 -4.54267 1.20939 
24.0056 6.53003 1.05971 
16.1355 -7.45301 1.5453 
14.4663 -4.41164 1.85789 
15.0087 -5.32882 2.78507 
24.2528 6.62484 2.30081 
24.5056 6.54069 2.47637 
15.7393 -3.39608 3.00707 
15.8157 -7.26569 3.77053 
24.1804 6.55791 3.84991 
21.9307 -12.3056 4.4331 
18.9901 -8.7307 4.71988 
27.2065 -16.0239 5.04484 
22.7634 -10.9057 5.36272 
19.3232 -7.33473 5.44979 
17.1273 -6.3565 4.9386 
17.0114 -2.52326 5.15458 
25.4903 3.1672 5.40563 
24.1715 6.49278 5.19229 
21.1778 -8.14029 5.91176 
17.4933 -5.16083 5.60976 
16.9306 -3.67743 5.76398 
17.2681 -1.72365 5.7873 
25.5019 -10.0935 6.91471 
22.938 -8.88751 6.37299 
21.4248 -6.6757 6.67122 
20.0572 -5.86271 6.39487 
17.8274 -3.80824 6.36155 
18.3657 -0.487542 6.94269 
25.5267 3.15335 6.63125 
29.2107 -11.6868 7.65759 
23.3167 -7.35269 7.20031 
18.4983 -2.49147 7.25381 
23.8622 6.2102 7.37056 
26.2659 -7.92591 8.1749 
19.1928 -1.61413 8.73677 
24.6534 6.65467 9.44882 
24.3859 6.35838 15.8033 
24.4003 6.35882 16.458 
25.5658 3.19962 22.75 
25.0267 8.13902 22.6131 
16.5146 -2.32742 0.629879 
16.3584 -2.04192 0.984006 
24.639 7.45323 0.927317 
24.5569 -15.8404 1.85817 
17.6458 -8.8831 3.84904 
26.2227 -16.9151 4.38465 
18.0059 -7.51703 4.79313 
18.4969 -6.22599 5.5558 
16.3842 -4.43068 5.12203 
16.3945 1.27477 5.57905 
22.9168 -9.89518 5.90163 
19.0306 -5.17257 6.23688 
25.216 -11.0278 6.37685 
21.3195 -7.31018 6.35958 
20.1371 -5.39227 6.65069 
29.6865 -13.3365 7.01971 
25.5641 -9.18928 7.35812 
20.814 -3.98382 7.58987 
23.961 -6.4757 7.85516 
22.5722 -4.37267 8.18657 
24.5993 7.27818 17.7685 
25.3957 -16.6241 1.26095 
18.0177 -9.33696 1.26924 
15.1434 -2.98728 0.936985 
16.4735 -2.19249 3.22341 
24.6405 -15.9682 3.71748 
15.0897 -0.144961 3.89027 
25.3886 -16.2625 4.3195 
21.4692 -11.4246 4.58834 
19.3312 -10.1486 4.26967 
16.2227 -2.00761 4.6633 
15.5453 1.99652 4.84726 
23.6502 -12.822 4.95328 
16.7178 -5.7581 5.03079 
17.9291 -6.0388 5.39541 
15.7338 -0.907762 4.97296 
15.3024 0.183817 4.97941 
15.6359 0.128671 5.18327 
16.1209 0.198644 5.51584 
15.2722 0.836829 4.96569 
22.4437 3.00028 4.96598 
17.1775 -4.46097 5.81023 
17.0356 0.146418 6.1331 
28.8925 -13.076 6.86656 
22.822 -8.17514 6.64275 
17.987 -1.04642 6.47795 
25.1288 3.45702 6.62636 
25.129 3.46176 7.42058 
29.7923 -11.3121 8.00436 
21.998 -4.54891 7.89145 
21.03 -3.08113 8.09696 
25.3695 3.37659 9.41861 
23.3846 4.72231 10.2214 
23.3762 4.75365 12.1516 
25.4527 3.3332 13.0386 
24.8651 6.90922 13.8101 
23.4474 4.7363 15.7105 
24.8299 6.9367 15.9104 
25.4714 3.34493 17.1516 
23.4649 4.73568 17.2951 
24.2336 6.57259 18.0185 
25.4468 3.34225 18.5303 
23.4818 4.73615 18.6415 
24.0607 6.61396 18.6882 
25.47 3.59079 19.8229 
23.5052 4.736 20.0741 
25.4618 3.58965 20.5789 
25.4096 7.0775 21.2805 
23.5134 4.7311 21.9856 
24.1129 6.60575 21.9729 
25.7853 7.19067 22.1066 
25.4019 3.33859 22.8353 
23.4935 4.72378 22.7816 
24.0399 6.66415 22.7713 
14.4988 -4.44212 0.664089 
15.8013 -2.65235 1.20595 
15.9387 -1.54898 1.20214 
14.9511 0.344771 0.996511 
15.9271 -1.54878 1.8362 
14.9607 1.22305 1.85113 
15.6054 -2.59447 2.45539 
23.3978 5.62845 2.4897 
24.9257 7.8637 2.63821 
15.7908 -7.16041 3.24173 
15.6205 -4.60401 3.34473 
16.588 -2.47043 3.02174 
24.9168 7.85299 3.22095 
15.1193 -6.68453 3.99694 
23.4582 5.69588 3.78681 
24.1596 -14.328 4.56057 
21.344 -12.2226 4.23708 
20.4189 -10.1386 4.70388 
17.0754 -7.91841 4.28419 
15.8246 -5.90738 4.60056 
17.1831 -3.08092 4.52441 
19.3926 -7.45565 5.42682 
16.3425 -0.602228 5.43254 
15.3177 0.314866 5 
25.0232 -12.238 5.77216 
21.177 -8.26524 5.85131 
18.7154 -5.83513 5.80949 
29.8903 -15.09 6.38556 
26.2573 -10.7771 6.92375 
21.8754 -6.83686 6.80876 
18.3283 -3.18337 6.85173 
18.407 -1.81262 6.71572 
24.0162 -7.98272 7.23069 
22.4775 -5.48865 7.65998 
26.2065 2.66085 11.5591 
24.9012 7.86447 11.5586 
26.2013 2.68027 13.5622 
26.2055 2.68449 15.0735 
26.2179 2.68751 15.7331 
23.2464 5.43446 15.7815 
26.2284 2.69049 16.4057 
24.8362 7.79515 16.388 
26.2252 2.69171 17.087 
23.2521 5.42016 18.3598 
14.4935 -4.35318 0.661945 
15.8056 -2.59174 1.84985 
15.574 -2.55178 2.46446 
16.2174 -2.54251 2.6114 
15.0422 -5.46042 3.209 
16.6453 -2.6094 2.92091 
23.3889 5.62285 3.08568 
19.2295 -10.844 4.00816 
23.398 5.63275 3.79896 
20.4494 -9.98165 4.78392 
16.8287 -6.46115 4.76766 
15.7696 -5.85192 4.60391 
17.1544 -2.9448 4.50529 
22.6595 -11.0253 5.26303 
19.4273 -7.51611 5.41534 
18.0401 -6.86817 5.08653 
23.1996 -9.39781 6.2593 
26.1491 2.63292 6.01117 
24.9632 7.92662 6.03229 
29.9385 -15.2089 6.35806 
26.1893 -10.7575 6.90432 
21.7995 -6.87028 6.7614 
17.6232 -2.9941 6.55224 
24.97 7.93697 6.62233 
23.9908 -7.86856 7.26828 
24.3054 4.08072 7.61444 
27.1306 -8.87634 8.11228 
24.934 7.89476 9.43896 
24.8164 7.76886 17.1816 
23.2561 5.41328 19.7658 
25.4595 -16.6888 1.18027 
25.3578 -16.598 1.71799 
16.375 -2.29214 2.54333 
15.2394 1.79875 2.63356 
15.5717 1.93717 2.27925 
16.9793 -3.11052 3.24946 
23.5701 -15.078 3.98982 
17.175 -3.23961 3.78106 
27.6451 -18.4267 4.32713 
18.0711 -7.60178 4.78135 
15.2031 -5.21176 4.60267 
17.1727 -3.25249 4.43871 
24.1839 6.68103 4.60568 
21.3436 -9.44123 5.40474 
16.1923 -5.35289 5.01484 
17.4444 -2.23202 5.61885 
20.784 1.29104 6.22882 
22.1718 -8.01517 6.42395 
20.8294 -5.88676 6.74994 
17.1664 -3.24526 6.34998 
20.7023 1.23926 6.61356 
22.7865 -6.56083 7.3247 
25.4795 -7.19967 8.18391 
20.6946 -2.95687 8.0027 
25.397 3.23467 7.98958 
24.157 6.67404 7.9605 
24.8507 6.83446 8.91933 
24.876 6.86661 9.55854 
24.8744 6.84129 10.1808 
25.4729 3.2427 10.7558 
25.3982 3.27146 11.5682 
23.4398 4.70093 12.1999 
24.1968 6.6175 14.3679 
25.458 3.24747 14.9355 
25.4721 3.348 15.6599 
25.471 3.34846 16.3118 
24.8926 6.86488 17.723 
25.583 3.25733 20.4717 
25.5189 6.9709 20.9521 
25.5525 3.27904 21.1675 
25.9346 7.10421 22.1607 
25.3874 3.34158 22.7894 
25.3615 -16.6035 1.77707 
16.479 -2.19151 1.79595 
14.3714 -4.5605 2.50061 
15.6046 1.90447 2.26256 
23.2892 4.61592 2.75294 
24.9127 -16.2147 3.21028 
23.2917 4.68717 3.23318 
23.6334 -15.1696 4.03495 
22.8683 -12.3273 4.80028 
16.8354 -6.86186 4.58766 
14.5722 -5.78385 4.21076 
15.476 -1.01519 4.37635 
25.5948 -14.1192 5.21863 
17.1962 -3.34815 5.11171 
16.6162 1.92346 5.33242 
20.2119 -7.18305 5.90843 
24.8187 6.83319 6.01442 
24.5199 -8.99911 6.98518 
22.0963 -7.96582 6.41161 
25.3667 3.27802 6.77929 
24.8092 6.85032 6.80976 
24.1831 6.61409 7.36349 
25.4038 -7.26792 8.13763 
24.0153 6.56507 11.6203 
24.9194 6.85265 12.444 
23.4493 4.69363 13.0186 
25.3971 3.28926 14.8716 
25.4745 3.35037 15.579 
25.0403 6.88006 16.3745 
25.4825 3.34393 19.7625 
23.5439 4.59886 23.1485 
24.7262 7.51344 2.61787 
20.055 -11.4934 3.91806 
15.2155 -6.7378 4.04417 
17.1693 -3.01578 3.79557 
15.2281 -0.398673 3.87563 
26.0523 -15.6184 4.7802 
22.7958 -13.5434 4.33098 
19.6151 -9.36795 4.69815 
16.7238 -3.86056 4.59987 
24.0973 -12.1263 5.43046 
21.4468 -10.4299 5.02 
18.662 -7.42917 5.11345 
17.3021 -6.48945 4.94377 
17.1056 -3.07443 5.07993 
15.3564 -0.402689 4.93575 
15.2548 1.07069 4.93675 
16.9659 2.43223 5.1213 
28.3444 -14.557 6.01668 
17.5599 -2.89955 5.92768 
17.1846 -1.70453 5.77391 
16.9275 0.420916 6.09987 
16.92 1.56453 5.66083 
21.4241 1.97776 5.87681 
25.0021 -10.3476 6.58872 
18.7722 -4.32673 6.51934 
19.9319 -4.66266 6.8895 
18.042 -0.406414 6.75976 
30.2615 -13.0809 7.35551 
20.7842 -3.60277 7.74787 
19.8819 -2.03304 8.12129 
19.2498 -0.914804 9.19314 
25.0072 3.97434 10.2354 
24.4025 4.02454 10.7696 
27.0035 4.44268 13.0411 
24.7096 7.45796 14.4716 
24.4081 4.02303 15.0908 
24.6341 3.88579 14.9084 
23.2143 5.40306 17.2089 
24.699 7.44235 17.8407 
23.2131 5.37693 19.2351 
24.7726 7.60338 19.3805 
27.0742 4.45676 20.9729 
23.2188 5.37312 20.6991 
24.7607 7.43036 20.6342 
26.0022 4.25675 21.0805 
23.2102 5.36794 21.4614 
24.7622 7.43294 21.4205 
24.6724 3.88731 22.7301 
24.2348 4.06687 23.1645 
24.4207 7.42578 23.167 
15.237 -0.411988 0.674227 
23.6046 5.94507 0.678637 
25.1368 -16.4135 2.48294 
16.1287 2.74403 2.43117 
25.0237 -16.3188 3.17622 
15.7634 -3.18685 2.86753 
23.5908 5.8572 3.19416 
18.0799 -9.22191 4.14226 
16.6401 -8.14898 3.9685 
15.8543 2.59733 4.53478 
21.2569 -9.37855 5.3989 
21.9936 2.56383 5.28499 
20.1497 -7.15773 5.89099 
19.1458 -5.25595 6.26004 
22.0516 -7.98726 6.3805 
23.9393 4.32225 6.7492 
23.7365 6.01966 6.62956 
22.9022 -6.60935 7.35381 
25.5277 3.15732 7.42414 
26.1829 -7.87339 8.17235 
25.4999 3.15833 7.98487 
23.6896 5.97731 7.95652 
23.6259 5.94928 8.58153 
25.5676 3.1434 9.43494 
23.8633 4.41073 10.2 
25.5444 6.63963 10.3389 
25.5437 3.16653 10.7506 
23.9854 6.21468 10.7381 
25.5129 3.17796 11.4464 
24.3729 6.28837 12.2234 
25.5557 3.19552 13.0606 
25.5618 3.19708 13.6676 
24.0257 6.19914 14.2961 
24.4107 6.33902 15.8879 
25.6043 3.20829 17.0345 
24.3884 6.36406 17.2742 
23.702 6.03324 18.4644 
25.5907 3.2043 19.1428 
23.9243 4.46973 19.4472 
23.5753 5.92305 19.0326 
25.617 3.20679 19.7751 
23.87 4.51476 21.2837 
24.2934 6.4358 21.6178 
26.5567 6.94566 21.4484 
26.2527 6.85986 22.0808 
15.1671 -0.279655 0.664275 
25.3846 -16.6152 1.08402 
16.1393 2.7454 0.956345 
14.7776 -5.80531 2.18732 
16.1457 2.75132 3.24733 
25.0809 -16.3793 3.80072 
17.1465 -8.55476 3.60791 
16.3284 -4.2745 3.79628 
15.9514 2.63789 4.00887 
27.0635 -18.0026 4.30884 
22.612 -12.1714 4.75608 
20.1902 -10.6044 4.40864 
23.745 4.44026 4.60823 
23.7506 6.04663 4.58376 
19.2429 -8.22442 5.03521 
23.7543 6.03793 5.33692 
23.6829 4.47659 5.90587 
18.6141 -1.46309 6.78389 
23.8741 4.37112 6.8069 
21.5586 -4.62307 7.6613 
23.8386 4.40346 8.10751 
23.7306 6.03743 7.92809 
23.836 4.40924 8.82098 
23.654 6.01054 8.49207 
26.3252 6.87129 9.95743 
24.046 6.21031 10.6615 
25.5932 3.11279 11.3988 
25.6163 3.123 13.0812 
24.0595 6.20412 14.2711 
23.6305 6.01184 15.0326 
25.6521 3.13147 15.5879 
25.6535 3.13247 16.2399 
25.6657 3.13536 16.9761 
23.9418 4.46124 17.4158 
24.4128 6.34392 17.2822 
25.6741 3.12693 17.7389 
23.7465 6.0822 18.3694 
25.6732 3.13675 19.0939 
23.6325 6.01265 18.971 
23.9113 4.48172 20.2078 
23.8985 4.49444 21.1502 
24.332 6.37558 21.646 
23.7076 6.038 22.0586 
25.6334 3.13793 22.9432 
23.6587 6.02339 0.689066 
14.78 -5.7899 2.17194 
17.1177 -8.52234 3.57445 
16.6965 -8.21963 3.98681 
17.1808 -3.41202 3.70193 
16.0115 2.68824 4.04087 
22.5693 -12.1454 4.74871 
20.1752 -10.5726 4.41389 
17.782 -7.45498 4.72664 
21.1731 -9.34004 5.38177 
17.1428 -5.78658 5.19105 
16.3885 -2.17034 4.99923 
15.6216 0.775589 5.19862 
22.0181 -8.00333 6.35717 
25.6067 3.07535 8.58299 
23.8357 4.42096 9.3998 
23.8732 4.41222 10.9296 
23.7685 6.07698 11.0056 
25.6334 3.08021 11.375 
23.9217 4.45846 15.5674 
25.6988 3.10078 18.3698 
26.2369 6.87436 22.2043 
20.0224 -11.3263 0.835318 
15.4739 -6.75618 0.992238 
14.9267 0.989826 0.984868 
15.2234 -6.58438 3.13341 
15.6949 -6.94262 3.96286 
14.721 -6.0182 3.98712 
17.2219 -7.90172 4.34137 
20.8873 -9.95977 4.98051 
19.8065 -8.00377 5.37867 
22.0427 -8.88778 5.97055 
22.7749 -7.41776 6.93959 
20.7674 -6.47216 6.46263 
18.3936 -1.79661 6.80174 
22.9953 4.97935 6.63603 
24.7715 3.79968 7.34826 
22.6921 -4.19674 8.28806 
24.8252 3.76452 10.7674 
25.508 3.80612 13.0347 
24.6029 7.3358 14.9748 
25.5415 3.88014 17.1827 
25.4549 3.7326 17.7239 
25.6471 3.73974 20.6744 
24.7827 7.35193 20.6421 
24.7753 7.35214 21.4294 
24.8505 3.89455 21.8512 
24.0466 6.59134 0.685229 
20.126 -11.44 0.978517 
15.6046 1.95392 1.13928 
20.003 -11.3595 1.73601 
15.1446 -4.37039 2.98422 
21.2169 -12.4638 3.95385 
16.3544 -6.01941 4.76501 
23.4905 4.58544 4.62338 
23.036 -11.6276 5.16453 
19.35 -7.54195 5.37148 
15.6737 1.81677 4.97854 
16.6793 -3.8654 5.79879 
24.308 -10.0779 6.42167 
22.1235 -7.42114 6.66857 
17.4044 0.235969 6.36916 
24.8574 6.81267 6.68706 
30.984 -13.7186 7.35001 
25.4257 3.23568 7.42877 
23.607 -5.92121 7.95273 
24.9528 6.84318 9.02094 
25.4283 3.24375 11.5282 
24.795 6.89085 21.8424 
15.9937 -1.69412 0.618621 
14.9831 0.169083 0.955375 
15.7905 -2.58399 2.37416 
16.3784 -2.66154 2.67585 
15.4282 -0.740237 2.42931 
16.6733 -2.93126 2.93412 
24.3829 6.63974 3.20472 
21.2731 -12.4452 4.05725 
20.3791 -9.86576 4.80107 
18.4161 -8.59302 4.52918 
17.2958 -2.99684 4.59471 
14.7928 0.968587 4.5939 
23.3947 4.64004 4.62613 
23.0561 -11.5983 5.18527 
16.9847 -5.12696 5.41009 
16.3464 1.96535 5.19929 
24.3343 6.61723 5.29132 
21.4028 -8.7484 5.73819 
20.2081 -6.51867 6.17489 
18.5956 -5.81099 5.7645 
17.6472 -4.35467 6.03877 
18.0572 -2.01696 6.07848 
24.2559 -10.1376 6.37189 
18.25 -2.01452 6.53443 
23.4586 4.62086 6.68584 
25.5556 -8.83185 7.518 
25.3212 3.31815 7.41056 
23.5371 -6.0693 7.86343 
23.3756 4.68222 7.98793 
25.33 3.3233 8.87197 
24.2243 6.60424 10.7918 
25.3978 3.33965 13.4998 
23.4521 4.71401 14.4533 
23.4485 4.71752 16.3949 
25.3722 3.34214 18.5243 
23.4733 4.72555 18.3857 
24.0068 6.5636 18.9781 
14.9769 1.22088 0.665376 
28.1502 -19.1591 1.70104 
17.0018 -8.36528 2.40539 
14.7675 -3.80649 2.66943 
26.3972 -17.6848 3.87634 
16.9736 -8.34091 3.70503 
22.0209 -11.7003 4.69855 
14.9132 0.405565 4.61754 
15.1741 2.24539 4.61755 
24.7607 7.56491 4.61259 
24.8796 -13.6737 5.11376 
16.2183 -0.498623 5.38013 
17.0548 2.52188 5.08136 
27.3034 -13.0989 6.29055 
23.0477 -10.5836 5.62839 
16.697 -4.42166 5.64022 
17.064 -1.1409 5.79 
24.1032 -9.39795 6.6278 
20.121 -5.84493 6.43373 
17.393 -3.59524 6.30132 
18.1885 -1.82556 6.56058 
19.7499 -3.17924 7.49687 
25.4424 -8.10653 7.79818 
26.2187 2.60532 7.97346 
26.2328 2.60162 8.75687 
26.2429 2.61628 10.0818 
23.2096 5.37765 12.1761 
23.2062 5.37854 14.9752 
23.1932 5.37525 15.5708 
23.1894 5.37325 17.2926 
23.2044 5.37672 17.9626 
23.1927 5.37288 18.6359 
23.1726 5.27551 19.3144 
23.1918 5.36198 20.0654 
23.199 5.36319 20.8242 
22.9988 5.23166 23.2604 
15.0054 1.29431 0.681853 
17.0197 -8.35487 1.79319 
17.0033 -8.36704 2.39481 
14.7472 -3.73077 2.64502 
26.4302 -17.7445 4.02885 
21.876 -11.7127 4.63596 
18.4267 -7.92444 4.79957 
15.032 1.32044 4.6167 
16.0134 -5.26426 4.9796 
16.9923 -1.2657 5.72217 
17.1706 0.486766 6.23842 
26.1973 2.59297 6.20633 
24.7994 4.07292 5.97352 
19.1979 -4.06959 6.80388 
18.1857 -1.69367 6.44891 
26.1981 2.59336 6.76498 
20.8961 -4.62142 7.34315 
30.9182 -12.4648 7.8727 
25.4449 -8.00098 7.84308 
26.2347 2.5932 7.93238 
24.3602 3.99169 7.98225 
26.2505 2.58767 8.72632 
23.1891 5.3432 8.81925 
24.3767 3.99457 11.3663 
23.1989 5.35955 12.153 
23.1935 5.36124 14.9428 
24.641 3.998 18.0114 
23.1937 5.36318 18.008 
23.1833 5.35656 22.5946 
23.0014 5.2702 23.2663 
14.527 -5.45748 2.42437 
17.0754 -3.40347 3.37286 
24.8528 -13.8569 5.02873 
16.8615 -1.35684 5.37931 
16.1397 -0.393364 5.37282 
19.2592 -6.81801 5.64116 
26.2053 2.58631 6.23885 
19.2127 -4.11018 6.79384 
26.2075 2.58625 6.78673 
18.152 -2.63854 7.02888 
24.7107 4.02424 7.25669 
25.4462 -7.9482 7.86553 
24.799 4.07453 17.1528 
24.6024 4.01378 18.0224 
23.1834 5.33361 19.419 
24.7877 4.08259 20.3922 
23.1954 5.36202 21.7885 
15.239 -3.20886 1.03865 
14.99 0.201677 3.21324 
23.8822 6.2301 3.17907 
15.629 -6.84867 4.07573 
16.7058 -3.89919 3.79218 
17.2802 -3.18029 3.78018 
27.0254 -16.8954 4.685 
18.9891 -8.85957 4.66596 
19.9155 -8.0121 5.42385 
18.1511 -7.12404 5.0276 
15.7579 -0.80254 5.01794 
25.3508 3.25753 5.42227 
16.6028 1.04233 5.79 
24.3995 6.44866 6.04722 
26.3502 -11.4464 6.66251 
20.8792 -6.70702 6.41364 
19.9582 -5.23722 6.64077 
23.505 4.57487 6.6126 
21.8664 -5.79894 7.27464 
23.486 4.60819 7.98762 
24.7914 6.65988 9.68114 
25.4217 3.28108 10.2062 
24.8012 6.66169 10.2339 
23.9822 6.22111 14.4176 
23.6216 4.63433 16.2638 
24.3841 6.34875 16.6422 
25.5644 3.28934 17.7778 
24.3814 6.4685 20.0003 
24.3898 6.36795 21.3704 
23.9208 4.50628 21.8648 
23.8633 4.49465 22.6339 
23.7074 6.12784 22.8829 
17.2305 -8.51623 0.621382 
16.6347 -2.31919 1.20779 
17.0697 -8.45832 3.20099 
24.6788 7.3949 3.88214 
19.9598 -10.2408 4.46962 
15.1662 2.17073 4.54929 
15.7673 2.30171 4.71739 
16.9925 -3.58195 5.17933 
24.2343 -11.4783 5.77307 
21.9094 -8.15828 6.23227 
19.9194 -7.13914 5.79368 
17.7809 -3.78055 6.3601 
23.2242 -7.27995 7.19201 
21.4597 -5.20404 7.34468 
24.6326 7.36817 8.08155 
24.8271 3.96613 8.62224 
22.997 5.02574 8.76684 
22.9901 5.02437 9.43862 
25.6002 3.8894 16.4518 
23.0834 5.02489 17.9279 
23.1387 5.17381 18.7772 
23.1548 5.16391 19.4993 
23.1613 5.17336 20.6244 
14.6077 -3.67476 1.21031 
15.6915 -1.18557 0.979637 
16.6153 -2.3699 2.50106 
24.6372 7.3324 2.37558 
19.8851 -10.3345 4.39976 
15.5844 -6.06664 4.44849 
15.8282 2.28406 4.79819 
27.0592 -15.7012 5.1164 
21.0591 -9.42646 5.28801 
17.9017 -6.20894 5.30826 
16.2617 -5.40538 5.01423 
15.1742 0.381584 4.92828 
15.2566 1.21718 4.92812 
24.1388 -11.3788 5.77388 
21.9665 -8.22081 6.2283 
16.9246 -1.45367 5.75265 
17.7873 -2.61367 6.53252 
18.4438 -1.6785 6.58649 
23.2093 -7.19709 7.22231 
18.6479 -2.94019 7.09043 
24.6589 3.80788 7.93789 
24.7007 3.8904 8.5207 
25.6062 3.94477 10.1855 
24.5808 7.26938 10.7514 
23.0893 5.01164 18.0409 
15.1759 1.66473 0.673428 
14.9975 -3.14599 1.81078 
20.5744 -11.9551 2.40133 
14.7976 -5.15555 2.65928 
23.7411 6.02624 3.15204 
20.6236 -12.1307 3.75275 
23.5297 -14.1882 4.37786 
15.8631 2.47927 4.6405 
16.2165 2.63704 4.81516 
25.1157 8.15707 4.48782 
26.1528 -13.8342 5.54253 
22.0926 -11.0386 5.02764 
20.5116 -8.30864 5.55125 
16.4028 -1.12211 5.18967 
16.1883 -0.221034 5.47534 
16.1897 1.1024 5.51332 
23.3328 -9.9717 6.05408 
30.3155 -13.645 7.11228 
23.8656 4.38441 7.41252 
25.5309 3.15598 8.83916 
23.8914 4.38971 10.1719 
24.9995 8.0205 11.5819 
24.9713 7.97017 12.4248 
23.9705 4.38987 12.9976 
23.9775 4.38752 13.5649 
23.607 5.80765 14.453 
23.5848 5.89893 18.2783 
25.9686 2.91178 19.1891 
23.9968 4.37914 19.3271 
23.5689 5.90463 18.9759 
25.9805 2.90786 19.9505 
23.461 5.71362 19.7812 
23.4561 5.70492 20.5211 
23.4516 5.69607 21.2878 
26.3339 4.47209 22.0812 
26.9694 4.74496 22.0091 
23.5717 5.88254 22.0413 
15.2172 -3.25886 0.637344 
14.3789 -4.79615 2.47926 
20.565 -12.0299 3.636 
17.426 -3.1148 3.76058 
16.1474 -1.84876 4.04056 
23.523 -14.248 4.35442 
19.3036 -9.37807 4.57544 
16.6456 -6.20023 4.80807 
23.8627 4.36269 4.66457 
25.162 8.22721 4.49319 
26.095 -13.7839 5.54009 
16.1949 -0.120818 5.51438 
15.35 0.938092 5.00999 
16.1661 0.990633 5.5402 
19.3205 -6.23506 5.91042 
16.648 -0.136529 5.80898 
25.6066 3.0954 6.00529 
23.7129 5.9792 6.00101 
18.6073 -1.18727 6.78026 
24.01 4.36061 12.924 
24.018 4.35612 13.4888 
25.745 3.03651 15.2093 
25.8018 3.02875 16.5355 
23.544 5.76708 16.396 
27.5976 5.03373 17.6821 
23.5516 5.79016 17.725 
24.1296 4.32119 18.5591 
23.4929 5.79505 18.2564 
25.9712 2.91021 19.3284 
24.06 4.31508 19.237 
23.5025 5.7978 18.967 
25.9877 2.9036 20.1003 
24.1545 4.29585 22.2334 
27.0019 4.79426 22.0455 
26.0297 2.88112 22.7862 
15.2013 1.71704 0.660195 
15.4514 -0.78814 0.991474 
15.2042 1.72298 1.11286 
20.6005 -11.9822 2.48271 
14.3611 -4.84383 2.47821 
20.6044 -11.9957 2.99609 
20.5357 -11.9795 3.57762 
20.1209 -11.621 4.01661 
15.0275 -6.39891 3.66423 
19.325 -9.32892 4.60465 
15.8069 -0.0540535 5.26008 
15.3697 0.0545409 5.01186 
21.3208 -7.19449 6.42028 
20.2384 -5.27355 6.74299 
25.1573 8.21173 6.64869 
18.1419 -2.25936 7.21137 
25.6284 3.06213 8.87367 
25.079 8.12022 9.61658 
25.7865 2.98612 13.6912 
25.7977 2.99696 15.2337 
25.8226 2.9916 15.8876 
24.4218 4.36984 18.0053 
24.0917 4.28305 19.192 
26.0027 2.88125 21.8952 
26.1732 4.59871 22.1944 
23.4228 5.69049 21.9859 
23.3857 5.66952 22.7927 
15.015 0.0560349 1.07911 
25.0198 8.00347 0.975726 
21.148 -12.4957 1.67451 
25.0022 7.97778 1.81652 
16.1617 -1.87536 2.41996 
15.1052 -0.114696 2.60375 
15.0311 0.0350524 2.36277 
21.0676 -12.4763 3.14752 
15.0587 -6.41891 3.20289 
20.7653 -12.1998 3.56628 
21.1916 -12.4836 4.05433 
17.7402 -8.21268 4.4106 
23.3644 -12.1797 5.07642 
16.2414 -0.0952794 5.5554 
29.025 -15.9469 5.71969 
24.251 -10.891 6.03372 
20.5974 -5.43942 6.834 
20.5212 1.02232 6.82142 
25.7669 2.93496 6.73356 
26.2794 -9.42317 7.55185 
25.7617 2.96207 7.41146 
24.936 7.90903 7.40532 
18.969 -1.33067 8.52252 
25.9357 2.8158 8.82002 
24.6994 4.26779 8.83447 
23.248 5.43313 8.81806 
24.6616 4.27761 9.4203 
26.1461 2.7035 11.4275 
24.7024 7.4489 12.1961 
26.187 2.69375 13.0361 
23.1699 5.34022 14.402 
