ply
format ascii 1.0
comment Created by CloudCompare v2.11.1 (Anoia)
comment Created 2026/6/3 下午7:14
obj_info Generated by CloudCompare!
element vertex 1935
property float x
property float y
property float z
end_header
22.6157 7.41934 16.9548 
36.8945 8.26793 17.2656 
31.5241 10.4431 17.4018 
33.3185 8.22322 17.6537 
33.6412 8.01536 17.619 
32.0826 7.45765 18.6028 
31.9684 7.7709 18.51 
28.588 5.25996 20.9166 
31.9163 5.47924 22.7214 
33.2933 6.6149 23.5281 
29.8653 7.17859 23.6991 
28.3252 8.21793 23.5344 
29.6842 8.44285 23.1662 
36.6386 8.04898 7.2884 
36.5431 3.73794 8.25434 
34.3889 9.94911 8.06326 
27.2019 8.01834 8.63002 
28.7372 8.73808 8.75711 
28.964 8.48867 9.30183 
30.0154 8.52072 11.5173 
31.4306 8.7524 12.3447 
35.2881 11.1136 15.8497 
34.8152 11.6997 15.7361 
37.6205 8.98675 16.6684 
35.9848 9.38427 16.4232 
35.4121 10.0947 16.3409 
35.2231 10.6568 16.2005 
30.6443 12.601 16.1004 
34.5515 7.97165 17.3842 
36.2245 8.09482 17.2088 
37.7197 8.86502 17.1336 
26.1088 12.939 16.9965 
33.0563 12.8593 16.9487 
26.3931 6.59269 18.0286 
36.2414 7.81228 17.5381 
28.2308 9.00099 18.0714 
32.7233 8.60947 17.7309 
37.7358 8.78041 17.8072 
37.9137 8.81641 18.3957 
28.1284 6.22978 19.5231 
33.2216 6.25578 19.0566 
31.3536 6.87956 19.4791 
31.5938 5.39781 19.7556 
31.5928 5.05293 20.7986 
31.5476 5.16902 21.2979 
29.189 7.99625 23.3343 
33.0373 6.18879 23.8293 
29.604 6.72974 23.9435 
31.2756 5.36018 24.6301 
29.5913 5.87993 24.7483 
25.9985 8.06193 5.11524 
36.6822 8.04869 7.19503 
36.782 2.65708 8.24538 
35.6549 5.99903 8.38167 
25.8163 8.72231 8.31283 
25.9793 9.44314 8.28093 
27.5584 11.2018 7.77623 
27.2141 7.97612 8.64915 
33.4078 7.12989 11.5327 
31.4112 8.75553 13.0428 
31.8954 12.4281 15.1933 
35.1714 11.1508 15.9691 
25.8273 12.1934 15.6244 
32.9927 13.0891 15.8448 
37.6692 9.00575 16.6719 
28.2772 11.0143 16.6835 
36.2745 8.11269 17.1986 
32.0696 11.4559 17.24 
33.0457 12.5611 17.2168 
26.4485 6.58198 18.0645 
37.7635 8.82698 17.8302 
32.149 10.848 17.6118 
33.108 7.19213 18.3187 
37.883 8.73741 18.351 
33.4017 4.81695 22.8093 
29.2854 8.11312 23.2905 
29.5516 6.24377 24.2867 
29.5267 6.83184 23.8815 
24.5823 5.29809 3.40935 
35.2913 9.1582 6.89994 
35.654 2.09326 8.3372 
36.7205 5.36677 8.24588 
35.2733 9.20118 7.98071 
35.3647 3.12812 8.41532 
35.1586 4.07157 8.44132 
30.6952 8.59919 10.7781 
30.5818 8.62831 13.5963 
22.5741 7.61071 16.6064 
24.7813 8.89957 16.2559 
35.0737 9.00627 16.7563 
34.7149 9.62888 16.6727 
34.6313 10.1441 16.5274 
36.2026 10.0545 16.1927 
27.6127 11.6064 16.5302 
34.0587 12.2635 16.2046 
33.7116 12.81 16.1711 
33.4513 8.76386 17.3598 
35.1964 8.59792 16.9057 
27.5778 10.7632 16.9895 
31.4324 11.2303 16.874 
22.3335 7.35664 17.9184 
33.9993 6.81043 18.4134 
32.1317 7.35614 18.6333 
31.6978 9.41835 18.252 
32.3826 6.66699 19.0214 
29.0052 5.76977 20.8249 
29.0215 5.77632 21.7972 
28.4907 8.11759 23.4792 
32.3906 5.93129 23.9332 
30.6041 5.59166 24.8758 
30.305 6.09222 24.6155 
34.8459 7.67623 4.61493 
34.8576 7.62019 4.90877 
33.9836 9.99982 6.61686 
33.9635 10.176 7.3241 
32.4531 11.4019 7.47619 
36.2353 2.50272 8.26551 
36.5619 7.47208 8.1585 
36.1823 8.11316 7.99788 
25.5964 9.39621 8.20506 
27.4055 11.1084 7.95586 
26.7446 6.66318 11.629 
32.9809 13.0362 15.7808 
35.2587 10.5671 16.219 
32.634 13.234 16.6325 
30.9075 10.7254 16.964 
32.9878 12.918 16.9538 
36.3284 7.79708 17.5749 
28.1419 9.3862 17.7694 
32.2815 10.8302 17.6018 
21.5484 7.80559 18.6276 
27.8346 6.06779 19.4556 
31.39 6.41602 19.6595 
31.5177 5.22722 21.2845 
33.4141 4.79827 22.8005 
31.5586 5.03208 22.6426 
33.0716 6.25116 23.7718 
32.7997 7.58927 23.1411 
23.1943 4.5476 3.7172 
25.7834 9.82031 6.75271 
36.2774 2.60152 8.27063 
36.081 3.74906 8.32006 
35.5359 5.21753 8.38318 
36.2756 8.12619 7.90745 
33.1969 7.48625 8.81037 
33.1999 7.31605 9.43116 
33.18 7.32871 10.2492 
33.158 7.40107 10.9284 
33.0972 7.53746 11.6155 
26.58 6.41361 13.0672 
26.6621 6.51553 12.7701 
28.2413 9.00021 14.2987 
32.0949 11.1231 14.7944 
34.8254 11.5287 15.3536 
35.825 9.19548 16.5131 
35.4766 9.97624 16.376 
34.8559 11.116 16.1621 
34.375 8.53746 17.1482 
28.1974 10.5625 16.9231 
29.5687 10.6135 16.8169 
33.0749 12.5652 17.1955 
32.8278 7.96094 18.0096 
32.2491 10.7796 17.6265 
32.9934 7.32923 18.2759 
37.8672 8.54143 18.3476 
31.2032 7.82259 19.0662 
33.2744 5.46834 22.8709 
29.5315 7.96823 23.3322 
33.6185 8.72234 5.14827 
34.6973 9.50655 6.72846 
27.7598 11.0237 6.90072 
33.3417 10.6141 6.84838 
34.7948 9.56677 7.4642 
33.0929 10.9944 7.39792 
35.5238 1.90391 8.34134 
31.6265 11.5162 7.99595 
35.1954 3.12487 8.47981 
34.7354 4.23644 8.66181 
34.6766 5.20094 8.64251 
34.2439 6.1232 8.83322 
32.1306 8.18811 9.00869 
34.0538 6.62382 10.8438 
32.0563 8.27935 12.292 
29.0464 8.49857 12.1921 
34.0043 6.67585 13.5701 
32.462 12.6641 15.36 
36.5695 9.37644 16.3387 
36.126 10.2723 16.1586 
27.5999 11.1728 16.7442 
34.615 10.9676 16.2838 
34.1257 11.5388 16.2776 
33.6919 12.8291 16.2021 
35.3545 8.00454 17.2245 
33.4534 8.21619 17.6014 
33.6924 7.87038 17.6851 
37.3884 8.22658 17.7532 
38.6037 8.86207 17.791 
33.951 6.84475 18.3822 
32.02 7.84284 18.4452 
38.3993 9.18576 18.5211 
30.4758 6.97239 19.5713 
32.0894 6.79171 19.0986 
28.7941 6.58928 22.8115 
28.5126 7.37612 23.6767 
32.3337 5.87117 24.0093 
30.3866 6.63387 24.1429 
28.6032 7.28666 23.9327 
35.2394 7.64933 1.80555 
35.3881 7.35685 2.30277 
25.3124 7.93534 2.50954 
35.5911 6.67486 3.06545 
29.8048 10.1819 3.36991 
31.2847 10.1449 3.78483 
29.8556 9.69452 4.64554 
33.0379 9.22749 5.15141 
32.5688 10.7497 6.38323 
24.5707 2.32471 8.32138 
36.0832 4.67475 8.33012 
36.0436 5.88758 8.34295 
27.266 10.9475 8.16125 
28.9114 8.49082 10.2779 
31.7826 8.59862 11.5733 
30.358 8.57497 12.1956 
33.9703 6.70432 13.6867 
31.9943 8.33983 13.8148 
36.1444 10.4472 15.4576 
34.8834 9.40269 16.7088 
31.781 11.4385 17.012 
26.2058 12.2877 17.2766 
26.5243 12.9753 17.8525 
22.2545 0.601535 18.683 
32.5499 6.86807 18.7987 
27.4271 7.22098 18.3542 
32.0649 7.90435 18.3922 
32.3339 6.593 19.1109 
30.6959 5.7166 20.0697 
30.6934 5.98956 20.6638 
33.0403 3.95191 22.9612 
32.0823 8.24301 23.148 
30.5312 8.59095 23.2236 
30.8809 5.60651 24.6866 
33.8831 8.89176 1.65454 
33.6786 9.21531 1.47672 
33.9437 8.74719 2.34119 
33.9941 8.22743 4.06373 
32.1703 9.37981 4.12347 
25.7606 7.81757 4.67831 
34.0522 8.1826 4.54538 
31.9809 10.8969 6.27018 
36.0299 8.12496 6.84429 
29.1454 11.0615 6.58905 
33.4653 10.5587 6.83624 
35.9589 8.59882 7.46751 
33.7641 10.3184 7.37667 
35.6476 3.06095 8.36354 
35.3595 5.09324 8.39091 
36.1669 8.15926 8.09038 
33.6088 10.6163 8.03413 
34.7331 6.07778 8.59384 
26.0135 6.71488 8.58206 
29.6427 8.51683 9.61927 
32.9744 7.55366 13.0323 
32.686 8.3121 14.2435 
33.2849 12.4464 15.3562 
33.2925 13.1312 16.4869 
34.3956 8.79551 17.0482 
34.8411 7.36935 17.8035 
33.2846 8.03186 17.7682 
32.9644 8.6411 17.6347 
37.8586 8.98702 17.7802 
31.5547 7.26365 19.0711 
29.9546 6.05142 20.5572 
26.444 4.3745 22.6115 
33.7205 5.9878 22.8017 
33.4083 6.66563 22.8975 
30.3257 7.40288 23.6369 
33.4446 7.08673 23.167 
28.5697 7.97649 23.5205 
30.3995 4.74024 25.5526 
30.4153 4.70535 25.9974 
33.9907 8.69886 2.98248 
34.0788 8.17894 4.06709 
29.0307 10.0673 3.79608 
34.1178 8.15534 4.63825 
27.612 9.489 4.61094 
32.045 9.95222 4.52754 
33.772 10.0622 6.40419 
27.7517 10.8587 6.5553 
31.9561 11.2671 6.76888 
33.6817 10.3778 7.40468 
32.072 10.7443 8.31454 
34.8099 6.06952 8.5573 
29.2964 10.0112 8.40664 
29.4619 8.50333 10.2032 
32.8246 7.76983 12.1401 
32.4443 11.329 14.9628 
35.1733 11.3966 15.723 
29.7442 12.0162 16.2126 
32.0469 12.9813 16.3935 
34.4059 8.92453 16.9982 
33.2003 7.9397 17.8515 
36.5872 7.79706 17.5986 
33.4086 6.27995 19.022 
30.2562 6.13644 20.8369 
26.7341 4.75041 22.7926 
33.8584 4.80204 22.694 
26.7821 5.54256 22.8546 
28.6093 7.90595 23.5411 
30.3319 6.17434 24.5718 
30.4108 4.72149 25.5284 
34.8586 8.19013 0.501787 
35.0858 7.54676 1.09086 
34.9377 7.99159 0.892863 
32.763 9.7392 1.33733 
31.2345 10.0224 1.1142 
32.5768 9.92726 0.967071 
35.1631 7.66396 1.94178 
35.0578 7.72818 1.76474 
32.8451 9.61228 2.4195 
31.0485 10.2461 2.71014 
35.433 6.8683 4.22061 
35.3504 7.20168 4.73561 
33.0656 9.19935 5.18768 
34.7412 9.37339 6.60388 
32.6813 10.7385 6.46821 
29.8783 11.3765 7.33613 
24.6585 4.03763 8.34429 
28.584 8.6856 8.82528 
30.1745 8.8237 8.80879 
33.8416 6.81456 9.46202 
31.8175 8.57291 10.2282 
28.5511 8.51944 10.7951 
31.8526 8.53759 10.94 
31.9032 8.48576 12.1923 
34.0168 6.69096 13.0221 
34.0459 6.63604 13.6615 
33.9 7.56406 14.3787 
36.5998 9.84561 15.284 
31.6575 12.7833 15.2722 
36.2618 10.4499 15.7112 
32.6544 13.0752 15.7857 
35.363 9.41872 16.5641 
34.1566 12.254 16.156 
35.3159 8.58446 16.8925 
34.0772 7.20518 18.0183 
35.9365 7.61292 17.6445 
27.6191 6.79695 18.8262 
32.4425 7.40547 18.4681 
27.6961 5.90757 19.4516 
32.5527 6.16643 19.3392 
32.468 6.61015 19.0483 
31.0626 5.7905 20.7084 
31.0512 5.43395 22.1612 
31.054 5.84093 21.7932 
31.235 4.79869 22.4904 
33.2516 4.8133 22.8894 
29.5018 8.60046 22.8759 
31.2003 9.92336 1.24907 
32.6527 9.87923 1.0164 
35.1249 7.67128 2.00989 
32.8128 9.81517 3.09425 
24.7593 6.6055 5.10196 
34.7631 9.30681 6.5416 
24.5947 4.07753 8.34059 
35.6222 6.64762 8.34376 
31.566 10.0392 8.3921 
32.8184 10.9108 8.27221 
26.9937 8.68571 8.40956 
31.9933 8.37243 12.4219 
35.2515 8.78855 14.8331 
34.2061 12.0587 15.3543 
31.5834 12.7506 15.2513 
36.3205 10.4512 15.838 
36.4908 10.2604 15.6778 
34.2232 12.2347 15.7323 
22.331 7.78352 16.3141 
22.4633 8.00102 16.1455 
35.2747 9.38459 16.6074 
36.8139 9.27235 16.3586 
34.863 10.1347 16.4692 
26.8062 12.4488 16.6703 
29.0586 12.0171 16.2026 
31.5944 12.8934 16.2064 
35.6189 7.96961 17.2345 
26.6541 12.1347 17.0164 
34.2093 6.79781 18.4309 
30.678 8.46231 18.4004 
27.5887 5.84963 19.4243 
32.6239 6.13548 19.3159 
29.2646 5.82028 20.009 
29.3074 5.97062 21.7837 
33.1672 4.82548 22.936 
33.0397 6.42392 23.6052 
32.7031 9.94401 0.471204 
26.1523 8.86696 0.970293 
29.5865 10.2295 1.16112 
31.1284 10.1004 1.0008 
32.7158 9.86736 0.956669 
32.8503 9.42126 1.50096 
31.25 10.0212 1.71759 
35.229 7.40731 2.39525 
32.8538 9.65515 2.36195 
28.1708 10.0126 2.9738 
29.8452 9.74121 5.53402 
33.118 9.14706 5.21683 
34.8227 9.28531 6.60701 
32.9239 10.4753 6.30564 
32.8168 10.719 6.60209 
34.7793 9.62904 7.38059 
32.8665 11.1366 7.60049 
34.8422 9.52699 8.07201 
30.0503 10.2061 8.36415 
32.8067 11.2826 8.05663 
31.8582 8.5108 9.4182 
32.036 8.30271 10.2202 
31.8969 8.46733 10.0628 
34.0779 6.62761 12.1894 
34.1497 6.9412 14.1839 
33.8241 7.89002 14.464 
36.6486 9.89303 15.3132 
30.4425 11.0031 14.7944 
27.8683 12.3375 15.2076 
28.1936 12.6168 15.319 
34.637 11.8267 15.6551 
31.7491 13.0821 15.8036 
24.2236 7.84163 16.456 
35.2733 8.95499 16.736 
35.636 8.15849 17.0961 
35.9826 7.99522 17.2617 
25.7653 6.37456 17.9528 
32.0419 10.8332 17.5795 
32.6503 6.82183 18.8025 
30.9764 7.81356 19.0134 
31.1489 5.46069 19.9882 
31.3564 5.53244 21.2909 
31.24 5.44505 21.9267 
31.3029 5.23677 22.6248 
28.1899 5.94149 22.8153 
29.5691 10.0981 0.498694 
26.376 9.21132 1.55005 
31.2055 9.92503 1.55996 
34.8037 9.61247 7.37521 
32.8025 11.2573 7.36807 
35.6601 6.85274 8.34658 
28.6057 10.7266 8.31235 
31.4393 11.0016 8.28622 
31.8741 8.49569 9.3943 
31.9959 8.34811 10.2731 
32.0017 8.32777 10.7938 
32.2375 8.15284 13.8346 
35.4085 8.69112 14.8943 
25.1095 11.3234 15.5775 
34.5729 11.861 15.5895 
29.2511 12.3804 16.0737 
34.8468 10.7324 16.2741 
31.8458 12.1918 16.6669 
31.7438 12.7899 16.3142 
35.6446 8.25294 17.0269 
25.822 6.35113 17.9942 
32.4813 8.22442 18.0332 
32.7064 6.75322 18.8387 
32.786 6.23125 19.2107 
31.2385 5.6639 20.8551 
27.5728 2.00289 22.6126 
31.6199 4.39457 22.6191 
28.8716 10.0514 0.375059 
33.8238 9.03232 0.940732 
33.7644 9.18539 1.08272 
30.4546 9.89804 0.765465 
31.9219 10.2147 1.04876 
27.2221 9.55764 1.74609 
32.0182 9.90887 2.51852 
34.6419 7.62752 3.35418 
34.0161 8.75162 3.21333 
32.0212 10.1921 3.23344 
34.1083 8.28799 3.80598 
34.2142 8.11876 4.50059 
29.1003 9.64974 4.60136 
32.1144 9.93408 4.3911 
32.2208 9.90046 4.52544 
34.2808 8.16586 5.06322 
32.3963 9.67773 5.32592 
33.8757 9.93835 6.50165 
36.0774 1.69507 8.27035 
36.0556 2.69044 8.30521 
35.1478 5.96386 8.43832 
31.0761 8.68189 9.36189 
33.1791 7.34074 13.6426 
28.1919 8.23228 13.8132 
36.1757 9.53563 15.1777 
26.2877 11.7851 15.2291 
36.0851 9.25704 16.4666 
34.2692 10.8575 16.4214 
34.613 8.78378 16.9966 
37.9931 9.2157 17.3207 
32.5546 13.016 17.03 
29.0314 8.81615 18.004 
26.3849 12.7905 17.8416 
31.972 7.83069 18.4903 
31.7674 7.22257 18.9595 
26.876 3.5899 22.7744 
32.0851 7.4053 22.8058 
34.0845 6.00546 23.1866 
33.0622 9.6933 0.564896 
35.2809 7.4878 1.05479 
26.9287 9.6742 1.17058 
29.7359 10.2563 1.16929 
31.7376 9.99961 1.80904 
35.61 6.81183 2.45358 
35.4056 7.26511 2.26635 
33.3236 8.98475 2.62695 
31.5732 9.67914 2.14491 
33.1608 9.39722 2.43899 
29.8137 10.2145 2.27448 
31.7942 9.98209 2.62269 
33.3891 8.75901 4.61955 
33.522 8.78174 5.27946 
30.4799 9.73526 5.52997 
30.3773 10.0035 5.27883 
33.101 10.4488 6.4217 
35.3665 8.99328 7.39417 
35.2498 9.12319 7.31803 
35.2237 0.976122 8.33479 
35.2427 9.22322 8.05887 
34.7725 3.40318 8.68601 
34.633 4.45237 8.70867 
33.6444 9.11364 8.40093 
32.5356 7.99787 12.2322 
27.5816 7.61989 13.0331 
29.2175 8.50695 13.0103 
34.3765 7.18002 14.3544 
32.6806 8.05118 14.1711 
36.0534 8.07272 14.8091 
37.1081 9.59637 15.3835 
33.9671 10.0289 14.9494 
35.1697 11.0946 15.2771 
32.3572 11.2898 15.0093 
37.0592 9.75536 15.6012 
27.468 12.7387 15.9004 
37.3973 9.44674 16.2729 
28.3114 11.6185 16.4049 
29.8463 11.5776 16.3967 
35.9681 8.03264 17.225 
26.9316 11.3443 17.0726 
32.3342 11.7658 17.4053 
32.8901 7.62343 18.1704 
37.5374 8.32805 17.7851 
37.6654 8.64599 17.7837 
32.987 7.17159 18.3833 
31.562 4.69746 20.5462 
31.5622 5.14648 20.8282 
31.6708 8.59848 23.2071 
35.2026 7.87985 0.487206 
31.3337 10.2924 0.622615 
33.2126 9.372 2.42783 
29.9035 10.2117 2.19113 
31.6821 10.0187 2.67477 
30.0305 10.1883 3.16093 
26.9956 9.40803 3.82034 
28.4706 9.76183 3.70904 
30.1528 10.1148 3.82638 
30.1815 9.66134 4.39756 
30.3732 9.74721 5.53394 
31.7774 10.9417 6.28432 
35.1859 9.18798 6.82484 
33.2811 10.8036 8.04331 
34.5817 4.56033 8.7321 
34.2764 5.99414 8.85322 
32.3449 8.10074 8.92925 
27.7677 7.76615 13.8746 
32.6384 7.90325 14.1103 
35.9593 8.12929 14.7859 
32.3641 11.132 14.8733 
34.9626 11.5605 15.7399 
35.5586 9.32779 16.534 
35.9577 8.5484 16.822 
37.509 8.67536 17.2134 
27.0081 11.2883 17.0439 
32.9837 7.09278 18.437 
31.6049 5.06361 21.4047 
33.416 5.34942 22.803 
26.4068 5.67602 22.8037 
33.3299 7.16647 23.2046 
25.5255 8.20587 0.563204 
33.9147 8.98129 0.889481 
32.0895 10.201 1.0075 
32.5738 9.45226 1.59646 
33.8593 9.15877 1.47464 
32.2705 9.93251 1.61495 
34.0759 8.59163 2.41758 
34.5115 7.64401 3.34957 
31.0011 10.0341 4.61305 
34.0129 9.87955 6.57449 
36.2439 8.12988 8.17227 
36.0956 8.52135 7.95732 
35.2651 4.47275 8.42186 
35.1879 5.4691 8.42544 
33.1664 7.39582 11.6252 
33.2572 7.28272 13.0319 
26.3917 6.22795 13.5086 
33.3114 7.20596 13.7312 
33.2224 8.06432 14.3339 
34.6606 8.07886 14.6156 
33.2888 8.68929 14.5611 
32.9672 10.7288 14.8821 
38.0611 9.00307 15.933 
35.8549 10.8038 15.7436 
34.0165 12.4091 15.7304 
36.5773 8.84191 16.6081 
34.6977 10.2123 16.4937 
34.1795 11.6539 16.2482 
26.9127 12.3441 16.6285 
34.7421 8.21371 17.2188 
25.4088 12.4639 17.4264 
31.7605 9.57999 18.1607 
34.0959 5.97667 23.1779 
34.0109 6.58471 23.3687 
32.4029 5.84736 24.0637 
25.6112 8.29677 0.587487 
32.0645 10.2483 0.388004 
32.1314 10.1975 0.99719 
34.0587 8.70861 1.8165 
32.4325 9.45356 1.65258 
32.3235 10.0625 3.07417 
30.8888 10.1542 4.01372 
27.8332 9.65158 4.60258 
28.1613 10.7095 6.25953 
36.1967 8.35269 7.58492 
35.6334 3.22365 8.37236 
34.2042 9.52367 8.32234 
28.1941 9.41151 8.45268 
33.1449 7.37889 10.9332 
33.3445 7.17227 13.7533 
34.8126 7.95885 14.6158 
34.6227 9.35484 14.8672 
25.7228 9.96334 14.9351 
31.5712 11.0475 14.8214 
26.5186 12.6635 15.7503 
36.5062 8.88007 16.5846 
26.7828 12.4558 16.6937 
34.8681 8.27213 17.1613 
36.6687 8.22557 17.2016 
25.3745 12.4375 17.4563 
26.4875 12.1912 17.191 
31.807 9.55656 18.1707 
30.609 5.85627 22.1353 
35.5374 7.48287 0.623096 
35.5269 7.2518 1.15575 
25.4891 8.2545 1.22214 
33.667 9.27531 1.05028 
35.7088 6.76813 1.4615 
25.5655 8.26659 1.82711 
35.7201 6.81947 2.12774 
33.8156 8.73593 2.47841 
27.5744 9.45987 2.38444 
31.9778 10.0231 2.59938 
32.3292 9.40178 4.09194 
33.9915 8.18872 4.44482 
29.2728 9.59962 4.5458 
30.6369 9.98201 4.60924 
33.8164 8.52389 5.18677 
32.3823 9.55579 5.43079 
32.2553 9.86512 5.22706 
35.5382 8.43991 6.56361 
32.5601 10.8533 6.58086 
30.9758 11.2573 6.76946 
34.8999 0.962601 8.35195 
36.8963 2.55847 8.23425 
36.229 5.11943 8.30668 
35.9095 6.83673 8.32699 
33.6755 10.5723 8.00733 
34.5425 4.08661 8.76675 
34.5332 5.28906 8.72359 
34.166 6.59532 8.84024 
27.5772 7.62739 9.26978 
32.488 8.02793 10.2179 
34.6187 6.77173 14.2638 
34.5619 7.93215 14.6067 
37.4274 7.83117 15.1756 
35.944 8.56043 14.9936 
34.1221 9.71102 14.7969 
33.9985 9.96923 14.9464 
35.2699 9.98665 15.0994 
28.7739 11.5562 14.9986 
30.2357 11.7386 15.0297 
33.8239 11.6767 15.1991 
37.0593 9.74054 15.5595 
37.0023 9.91134 15.8457 
35.9615 8.12026 17.1403 
34.1962 9.58232 16.8068 
26.5248 12.3945 17.1389 
34.4402 7.77364 17.5271 
26.2568 12.0792 17.5799 
31.3596 5.38363 20.6512 
31.3735 5.38203 21.8149 
31.4177 3.62346 22.6753 
31.6496 8.60544 23.1832 
29.0268 10.0578 0.38241 
35.5927 7.17741 1.1932 
33.7348 8.86462 1.66995 
33.7533 8.77926 2.48389 
27.5334 9.30663 2.25477 
32.0763 10.0246 2.57424 
33.7963 8.7837 3.7559 
32.278 9.31558 4.11485 
33.9172 8.21204 4.42624 
30.7379 10.0158 4.63744 
29.2291 9.73828 5.52937 
30.9335 10.985 6.3761 
33.9644 9.03469 8.37214 
33.7837 10.3629 8.07126 
33.7089 10.5504 7.99394 
34.2139 6.52323 8.8283 
32.5322 7.99006 10.225 
25.8215 6.22398 14.1225 
34.53 6.72286 14.2078 
32.6493 8.72587 14.4028 
32.6257 9.54828 14.6083 
22.1128 6.51477 15.1895 
35.8765 8.20059 14.7678 
37.5196 7.79886 15.188 
34.0426 9.93493 14.9509 
35.4008 9.92153 15.1092 
30.2477 11.9731 16.2747 
27.3898 10.8334 17.0601 
26.5341 12.4454 17.1259 
29.8095 7.35801 19.3581 
31.3684 7.3061 19.1777 
31.408 5.34335 21.8064 
31.403 4.78765 22.5351 
26.5154 6.62001 22.7777 
29.9199 6.20469 24.4083 
32.4994 10.0743 0.488966 
26.0192 8.75222 0.971647 
30.9783 9.97327 0.937009 
32.4231 10.0493 1.02242 
33.8977 8.77629 1.74613 
32.3848 9.51015 1.67697 
29.5712 10.2061 1.7185 
31.1595 10.1655 1.7952 
26.156 8.28864 2.40327 
32.4738 9.3251 4.37154 
34.1681 8.24667 5.20535 
32.456 9.59319 5.30058 
35.9782 8.13375 6.71151 
35.7284 8.44024 6.84132 
34.1249 9.7372 6.40499 
35.6115 8.86343 7.44674 
27.014 11.209 7.15477 
28.4027 11.251 7.21783 
35.0725 0.696351 8.32634 
24.4182 2.40736 8.31288 
35.6098 8.89071 8.07628 
35.948 8.45406 8.10477 
34.6443 3.86755 8.72421 
34.5258 5.17895 8.74644 
34.6405 6.06821 8.64032 
32.8422 7.69986 13.2879 
32.8285 7.63791 13.7921 
31.1957 10.1612 14.5925 
37.9775 6.83069 15.2419 
35.9511 8.15652 14.8211 
37.445 8.73538 15.3506 
34.2095 9.61118 14.8061 
35.9428 9.56042 15.1364 
34.0651 10.8043 15.0804 
35.4086 10.8556 15.2918 
32.6655 11.3969 15.0736 
33.95 11.5978 15.2022 
27.923 12.6617 15.5903 
34.2386 10.2238 16.6525 
27.8099 12.2077 16.216 
31.6177 12.9554 16.1795 
31.4505 7.2254 19.208 
31.4407 5.25283 20.6674 
31.5049 5.17066 21.7799 
31.1683 3.17981 22.6492 
31.5666 4.53585 22.5736 
33.3068 4.34489 22.8946 
33.2207 9.55114 0.558357 
30.518 9.98946 0.51886 
35.3172 7.35759 1.13242 
34.9856 8.04062 0.858782 
35.1147 7.87757 0.911589 
33.2799 9.58591 1.09439 
30.5229 10.0342 1.01414 
33.4363 8.97181 1.63325 
35.1504 7.24028 2.3694 
34.7121 7.59151 3.8291 
34.941 7.63584 4.59158 
30.545 10.0056 4.65231 
34.9305 7.58516 5.11752 
33.3726 8.83353 5.30029 
34.7927 9.18132 6.28606 
36.4814 8.01351 6.9884 
33.2416 10.4601 6.55166 
36.5142 8.17802 7.35164 
27.8025 11.1603 7.3395 
33.2735 10.8584 7.40529 
27.8292 11.2342 7.40432 
35.527 2.51906 8.35754 
35.39 3.76895 8.3779 
35.2205 4.96643 8.39062 
36.4772 7.92886 7.80625 
33.2538 7.29324 10.1434 
33.2601 7.613 14.125 
34.606 7.89459 14.6033 
33.2446 8.59234 14.5442 
33.0855 10.0516 14.6693 
38.1213 6.66508 15.2466 
37.8688 8.00043 15.3619 
36.0259 8.58982 15.0055 
35.9707 9.60372 15.1471 
24.9925 11.0027 15.2428 
33.0684 10.8282 14.9436 
35.8331 10.5616 15.2716 
37.4504 9.46533 15.7348 
35.7775 10.8667 15.713 
34.3756 12.0963 15.7265 
33.1802 13.0043 15.7794 
27.8353 10.9902 16.7706 
28.7942 8.18363 18.6124 
33.1436 6.38219 18.971 
31.4361 4.68326 20.3727 
31.2812 3.2601 22.6417 
33.2323 6.37184 23.7296 
29.931 6.16414 24.4492 
35.0507 8.02451 0.48582 
35.0723 7.24651 2.40628 
27.3923 9.54647 3.12786 
27.5246 9.83406 2.88436 
23.9846 5.2056 3.81167 
34.8498 7.58155 3.92316 
33.3786 8.81069 4.13868 
27.1693 9.21163 4.0487 
36.4582 8.22113 7.40384 
35.195 4.9341 8.38855 
31.7947 8.60822 11.6213 
33.2819 7.26257 12.168 
31.8026 9.44744 14.394 
31.8868 10.5773 14.6501 
38.1932 6.58228 15.249 
34.5753 10.2664 15.0603 
34.4417 11.0427 15.1664 
28.1878 11.573 15.0031 
30.5552 11.3362 14.9744 
34.4368 11.8114 15.2971 
30.6915 12.103 15.0757 
31.9643 12.1984 15.1374 
29.1694 10.7709 16.7262 
28.2525 12.0497 16.2095 
37.6082 8.74228 17.2364 
31.8264 10.1403 17.8612 
28.6066 8.06232 18.8335 
28.7594 8.21922 18.5903 
31.5701 6.10674 22.8135 
33.1956 6.11648 22.9125 
30.972 10.3073 0.598316 
32.3389 10.1885 0.496314 
30.759 9.76634 1.05006 
30.641 9.98603 0.946978 
30.8975 10.0506 0.830234 
32.3022 10.0981 1.01107 
35.201 7.6557 1.75409 
32.0779 9.56045 1.79298 
29.2932 10.2339 1.75126 
30.9945 10.225 1.7567 
35.4606 6.89141 2.56792 
33.68 8.84461 2.48949 
30.8794 10.3882 2.38157 
35.4527 6.77 2.99135 
33.6107 9.24512 3.41497 
30.6979 10.1233 3.27432 
24.1388 5.2699 3.73379 
33.7167 8.84283 3.80769 
33.6067 9.16585 3.63402 
35.2594 7.27549 4.58462 
35.2069 7.29705 5.33119 
29.0937 9.56026 5.53058 
32.0098 9.61282 5.53293 
33.4428 10.3568 6.52238 
30.9718 11.2974 6.81131 
36.7237 7.56292 7.66211 
34.9025 9.45433 7.36711 
33.5473 10.4403 7.49955 
35.3845 4.722 8.38891 
36.6917 7.33593 8.01336 
33.4321 7.96279 8.58899 
31.9946 9.33896 8.48938 
33.4372 7.10107 10.1123 
31.977 8.37631 10.1393 
31.9743 8.37387 10.759 
33.3991 7.15447 12.161 
33.3916 7.1621 12.941 
31.911 9.37286 14.3825 
33.2504 9.93054 14.6716 
38.2387 6.65562 15.2662 
36.4306 7.83398 14.8936 
36.0489 9.62239 15.1627 
35.9941 10.3632 15.272 
30.6666 11.0179 14.7755 
32.0608 12.2524 15.1507 
32.0556 12.7494 15.3068 
37.5668 9.37658 15.7787 
32.1189 13.0232 15.5891 
31.1308 11.8066 16.5093 
27.7231 10.6464 17.0208 
31.8994 7.2947 18.8169 
31.4586 4.31432 22.5623 
30.0537 6.72811 22.7706 
26.4422 5.9122 23.6435 
34.6102 8.22404 0.519418 
34.3134 8.41897 0.324972 
32.889 9.78154 0.31267 
31.7465 10.2596 0.506402 
32.6094 10.0302 0.590802 
34.0909 8.88387 1.0318 
26.7663 9.63622 1.19397 
32.8194 9.7282 1.24915 
28.4346 9.99437 0.983541 
34.0748 8.61688 2.47786 
31.3647 9.74409 2.27305 
34.1627 7.62537 3.3365 
34.0279 8.05213 3.92 
32.6053 9.37168 4.49787 
34.069 9.76333 6.3859 
31.2032 11.265 6.7968 
23.9955 7.8242 7.29224 
35.4587 8.94818 7.44635 
28.7839 11.1804 7.14916 
27.1461 11.2126 7.20331 
35.912 3.29436 8.3292 
32.4246 8.01159 9.47223 
27.6682 7.82894 9.9772 
32.3756 8.06677 11.6009 
33.8135 6.81927 12.2243 
32.1777 8.21687 13.084 
33.8896 6.91908 14.1023 
35.1839 6.80413 14.5553 
33.7601 7.60125 14.2974 
32.4946 8.80301 14.3805 
35.0421 8.50539 14.6727 
26.1079 9.16159 14.6213 
36.9209 5.81605 14.9512 
36.5207 7.77297 14.966 
38.021 7.90506 15.3761 
34.9897 9.0488 14.8376 
33.5971 9.79457 14.7081 
34.8317 9.38046 14.9217 
36.2098 9.39762 15.1424 
33.4435 10.3142 14.8531 
33.4081 10.7926 14.986 
32.5312 12.2397 15.2322 
37.9858 8.36003 15.5297 
33.5007 12.8036 15.7612 
36.2425 8.75565 16.6576 
34.6601 8.68796 17.0134 
31.1662 10.8078 17.0066 
27.0067 11.3984 16.9807 
31.4388 3.91057 22.6149 
33.1994 5.50168 22.9117 
26.4131 5.69226 22.7736 
28.6012 7.49683 23.6726 
34.4561 8.26249 0.535525 
26.5059 9.22522 0.498909 
30.0133 10.0965 0.548496 
32.7447 9.95105 0.638047 
26.3628 8.94136 2.00753 
34.211 8.7445 1.74378 
26.7497 9.37736 1.59218 
29.991 10.2595 1.57301 
32.7948 9.64499 2.37209 
28.4307 9.97129 2.98091 
34.0996 7.95208 3.89802 
32.6553 10.8338 6.5994 
35.4068 9.12077 7.0763 
27.2122 11.2144 7.22758 
30.1639 11.3694 7.30502 
35.624 5.79868 8.38012 
32.6579 11.4103 7.9677 
33.8281 6.84503 10.2072 
33.7992 6.86099 10.8968 
32.2744 8.13171 12.7863 
33.7595 6.90802 14.0615 
29.2427 8.79196 14.1265 
30.6575 8.67043 14.0732 
32.11 8.58634 14.1202 
32.3495 8.86214 14.3433 
28.1212 9.59714 14.5545 
32.3667 10.0816 14.6429 
36.5657 7.74247 15.0022 
34.8885 9.4376 14.9602 
34.8055 10.3626 15.0946 
34.7333 11.083 15.2037 
32.3957 11.2608 14.9992 
33.537 12.189 15.2784 
30.1898 12.5123 16.0721 
33.539 12.7792 15.7618 
29.265 9.54198 17.4169 
33.4141 7.56 17.9738 
30.5849 8.9683 17.9869 
21.8188 7.57352 18.8022 
31.4494 4.05412 22.5847 
31.5205 4.82357 22.576 
26.9861 7.20292 22.7956 
30.3916 9.99573 0.478473 
34.557 8.63168 1.13054 
27.1856 9.84637 1.21736 
31.7473 10.1778 0.973734 
33.2362 9.0049 1.62959 
34.498 8.63992 1.80895 
26.9725 9.62611 2.58591 
34.4907 8.32322 3.06762 
34.622 7.59738 3.77235 
32.8932 8.96099 4.45723 
32.7696 9.26752 4.66949 
29.9829 9.88713 4.63362 
30.4115 9.93171 4.39754 
34.2198 8.19512 5.27982 
31.2009 9.64995 5.52647 
29.9574 9.91932 5.42611 
27.084 10.411 6.1982 
35.8467 8.21131 6.61838 
35.5902 8.50605 6.71411 
33.0421 10.7224 6.74281 
27.7144 11.222 7.41263 
24.4997 8.4027 7.92253 
30.3063 11.411 8.02816 
32.8129 11.2913 7.97761 
34.032 7.44133 8.60352 
35.3606 5.6108 14.5646 
33.711 7.46256 14.2087 
37.0604 5.33671 14.9498 
38.2689 7.46367 15.3833 
36.5215 8.8129 15.1042 
36.2122 10.2884 15.3245 
34.8362 10.9122 15.1991 
29.0701 11.5852 15.0035 
38.016 8.35862 15.5175 
34.8221 10.3212 16.3959 
28.5446 11.3045 16.5195 
35.0076 7.68869 17.473 
26.5067 12.472 17.2279 
26.4945 12.756 17.055 
33.4482 7.40817 18.0544 
33.4496 8.01429 17.7019 
26.5268 12.747 17.7996 
26.5026 12.8357 18.3593 
31.6131 5.03522 20.8171 
30.0036 6.04843 22.5835 
28.6318 7.40204 23.8936 
29.0962 10.1805 1.00157 
33.255 8.96161 1.6485 
34.6097 8.55986 1.80891 
34.6467 7.39021 2.70364 
33.2914 9.03556 2.61412 
34.6262 8.49631 2.40737 
27.5171 9.65188 2.51938 
28.9844 9.66987 4.3732 
34.4469 8.00402 5.19555 
29.1346 10.7122 6.16163 
34.5769 9.55691 6.62376 
30.3384 11.0931 6.38804 
36.105 2.51913 8.27677 
35.7845 8.73981 8.00838 
34.3274 10.0262 8.00354 
34.1922 5.27254 8.90138 
34.15 5.13586 9.48766 
32.4183 8.0125 13.661 
35.294 6.57974 14.5716 
33.8414 9.41682 14.6885 
36.6712 7.72165 15.0321 
35.2511 10.0631 15.1067 
35.0038 11.3853 15.3251 
38.3156 7.55703 15.4407 
33.8825 8.26229 17.4256 
35.2226 8.68356 16.8702 
33.9344 9.4164 16.9343 
33.5093 7.27694 18.1188 
29.263 8.66299 18.0686 
28.2248 9.2866 17.8365 
26.3933 12.1382 17.6647 
22.0089 7.76788 18.394 
28.921 7.4929 19.1852 
31.6336 4.72791 20.6841 
31.6448 4.99461 21.2897 
31.243 2.50611 22.7601 
33.2229 7.23032 22.9195 
31.8129 8.48842 23.1583 
34.7631 7.91424 0.886511 
29.2734 10.2137 1.82124 
31.1144 10.2563 1.7472 
30.8466 10.4275 2.32298 
34.6073 8.11903 3.03341 
30.5647 9.99763 3.76162 
34.4855 7.9668 5.25515 
33.1659 8.96181 5.38167 
34.4764 9.08992 6.14323 
33.2384 10.3333 6.41446 
30.6673 11.3895 7.44332 
34.3775 9.98705 7.98992 
34.2662 4.15156 8.93229 
34.2811 4.82925 8.822 
34.2465 4.15807 9.31875 
34.228 4.37023 9.73851 
32.714 7.79367 9.50969 
34.209 4.4227 10.1231 
34.1795 4.75389 10.7867 
34.1817 5.06139 10.8269 
34.1502 4.97161 11.4178 
34.0639 6.53956 11.7298 
35.3835 7.32997 14.607 
33.86 8.71837 14.6071 
29.9567 10.1209 14.5911 
31.2571 10.2223 14.5906 
32.5568 9.99834 14.659 
37.2546 5.82758 15.0069 
36.8211 7.72162 15.0535 
36.6655 8.93493 15.1454 
36.6199 9.51 15.2307 
22.6378 8.23492 16.0023 
30.6592 12.9156 15.5765 
26.5162 12.1617 17.273 
28.1974 8.73553 18.3588 
30.624 7.48316 19.2394 
31.726 3.1777 22.6876 
31.787 3.98766 22.6596 
26.4856 5.15365 22.6914 
31.0341 8.67959 23.0325 
27.7926 9.85033 0.40783 
33.3711 9.56206 1.20391 
29.5691 10.3345 1.24863 
24.9983 7.8063 1.72572 
29.2958 10.3364 2.60042 
32.025 10.0165 2.60345 
32.0273 10.2236 3.25806 
31.9702 9.99997 3.86365 
33.1439 8.97991 5.45982 
30.4157 9.57146 5.55548 
33.2194 10.2975 6.37706 
27.8701 10.8651 6.47379 
29.4892 11.0673 6.38915 
32.0106 11.0422 6.45248 
33.1778 10.599 6.70287 
36.0067 5.43352 8.32174 
35.8917 6.59875 8.32787 
31.4408 8.762 9.00565 
31.5872 8.90286 8.79236 
34.1045 6.44873 11.8098 
34.1127 6.57332 12.3411 
32.5965 7.86797 13.5897 
35.4616 7.2456 14.6039 
32.6269 8.80846 14.4483 
32.6519 9.95669 14.6671 
28.9498 10.6094 14.6855 
36.6379 9.64607 15.251 
34.023 11.5861 15.1857 
32.9938 12.1235 15.2377 
38.1964 8.79574 15.8731 
36.5895 10.1926 15.6885 
36.6623 8.83423 16.5885 
38.083 9.0782 16.3604 
33.9627 8.57648 17.2491 
32.8193 12.7882 17.1214 
33.8321 7.82209 17.6517 
31.1737 9.60833 17.7547 
29.587 8.26144 18.3915 
38.0007 9.24697 18.3303 
34.7694 7.33057 2.50645 
34.6886 7.36115 3.03114 
34.6933 7.89818 3.27103 
33.4152 9.23923 3.74548 
34.6737 7.89074 4.58311 
32.193 9.72361 4.55655 
32.212 9.89839 4.69783 
34.6365 7.83035 5.30113 
33.4266 10.1198 6.26685 
29.9192 10.8994 6.24044 
32.2836 10.7783 6.21916 
34.5921 9.46242 6.58951 
33.3713 10.7702 7.35032 
34.4745 0.213737 8.35474 
36.2283 2.31792 8.25057 
34.5516 3.85193 8.7594 
34.5282 4.70055 8.74546 
34.5648 5.90135 8.67986 
34.3588 3.69346 10.8252 
33.1167 7.48776 10.7296 
32.9489 7.70665 11.0141 
34.3229 3.78259 11.5931 
32.922 7.73744 11.5867 
34.2868 3.813 12.3473 
32.8316 7.77169 12.2598 
30.0205 8.56391 12.3021 
34.2576 3.89074 12.9735 
32.8054 7.7825 12.9843 
34.2425 4.10359 13.3478 
34.2309 4.5345 13.7112 
31.4119 8.70586 13.6864 
31.6872 8.60571 13.5246 
34.229 5.95998 14.0763 
35.8318 5.74257 14.5746 
34.1519 7.30328 14.3078 
34.1014 7.93345 14.5405 
35.4624 8.04285 14.6598 
33.0998 9.68385 14.6386 
34.0462 9.39269 14.6904 
37.3383 6.53726 15.0504 
36.8443 8.98738 15.1968 
35.3966 10.2546 15.175 
34.1238 10.7858 15.073 
35.4489 11.1052 15.5964 
35.4561 8.80788 16.7593 
34.2241 10.7368 16.4807 
33.9894 8.11772 17.4567 
34.0438 8.65801 17.1819 
38.2298 9.04471 17.0023 
29.2246 7.37544 19.3204 
26.2306 4.06956 22.5803 
28.6358 5.80445 22.6635 
32.0742 5.868 22.8379 
34.8228 7.81866 3.37681 
28.9488 10.2336 3.24251 
33.8566 8.1753 3.94639 
34.8219 7.78804 3.8351 
26.939 9.43351 3.67714 
32.5366 9.6016 3.98682 
32.4305 9.97178 3.81982 
33.5033 8.59004 4.46202 
34.8876 7.63288 5.22007 
33.5131 8.78654 5.19071 
33.6404 9.98418 6.20264 
27.2173 10.5767 6.25821 
33.6543 10.5209 6.86435 
36.1505 8.37606 7.6255 
33.6456 10.5599 7.08439 
34.7522 0.85271 8.35228 
36.655 2.49733 8.23545 
36.2687 3.71663 8.27826 
36.0154 8.60142 8.03202 
34.5924 3.76007 8.72787 
34.5623 6.49193 8.6467 
34.5842 7.13337 8.53149 
31.982 8.33865 8.99081 
33.1507 7.44749 12.1838 
34.3799 3.35988 13.7567 
28.8745 8.53932 13.5828 
34.3643 3.16806 14.0135 
35.6522 2.81188 14.5187 
35.9264 4.01007 14.5523 
34.4713 6.71509 14.1802 
33.1423 7.56989 14.0983 
35.8964 7.12965 14.63 
33.1291 8.59844 14.518 
34.4258 8.68983 14.6421 
33.2217 10.1246 14.6725 
37.6582 5.3342 15.0424 
37.2283 7.53164 15.0853 
37.3249 8.57732 15.2814 
36.8432 9.56182 15.274 
33.3579 10.3725 14.8473 
35.5423 10.1352 15.1758 
32.3783 12.2924 15.2128 
33.2562 12.1585 15.2524 
27.6504 12.6056 15.3933 
36.913 9.96176 15.7882 
38.5234 8.83532 16.5341 
36.9042 9.45415 16.2794 
34.6061 10.7732 16.3448 
35.4143 10.7301 16.1515 
34.1338 8.12946 17.4008 
26.8165 11.6602 17.0473 
38.1379 9.02514 17.6267 
30.4307 9.47503 17.5879 
26.1159 12.9692 17.8474 
25.7632 12.9339 18.6878 
26.1225 12.9796 18.3474 
32.0359 4.47935 22.6649 
32.3484 4.57115 22.8395 
27.0691 6.19016 22.7962 
33.9075 6.03525 22.886 
35.1217 7.5621 3.35091 
35.1062 7.46107 4.62185 
33.7781 8.4823 4.75675 
35.0645 7.41882 5.34926 
33.7834 8.55755 5.26564 
29.964 9.57146 5.533 
31.7163 10.0882 5.1555 
36.1843 7.9895 6.79121 
32.6956 10.8294 6.61635 
31.7559 11.2507 6.79513 
34.7496 1.02197 8.34932 
23.597 3.78607 8.22804 
36.2384 5.99604 8.30252 
36.1661 8.24697 8.0891 
34.6861 3.74889 8.68038 
34.6939 4.64394 8.64189 
34.7061 5.41048 8.61375 
31.9983 8.33687 10.8467 
34.5294 5.34175 14.1004 
35.9649 5.82079 14.5906 
34.5111 6.83882 14.225 
35.9661 7.99618 14.6978 
29.2398 10.1447 14.5916 
37.4728 6.47897 15.0671 
35.9447 8.747 15.0028 
37.295 8.68581 15.2832 
35.8015 10.6556 15.3215 
34.5305 11.9906 15.7755 
27.6284 12.3771 16.1835 
33.4654 12.999 16.3603 
38.5975 8.88557 16.9619 
38.593 8.88401 17.8223 
30.3667 9.40878 17.6119 
32.7124 6.79563 18.7879 
34.3858 6.84956 18.3548 
28.4738 8.15546 18.8122 
31.3893 8.65727 18.6091 
38.5733 8.89453 18.5546 
38.5885 8.77077 19.121 
30.953 5.91744 21.7552 
32.0145 3.17371 22.8543 
33.9984 5.19489 22.8774 
33.9932 5.87479 22.9549 
31.6994 10.1004 4.01094 
31.4203 9.97827 5.44518 
36.2445 7.92412 6.77798 
36.2197 8.32126 7.60705 
36.2241 8.44529 7.32482 
36.5974 3.03624 8.24872 
36.1979 7.61205 8.27921 
36.2108 8.2792 8.04628 
34.7613 5.4299 8.57639 
32.1111 8.52425 8.81547 
30.9698 8.67128 9.22589 
26.5618 6.40855 11.786 
26.9512 7.07328 11.3255 
31.9872 8.36391 11.3966 
36.0314 5.85989 14.5987 
33.149 7.96863 14.26 
34.617 8.24425 14.6088 
27.1925 8.52653 14.3816 
35.9632 8.20412 14.8619 
35.9194 8.85313 15.0092 
33.356 11.0455 15.019 
35.7857 10.7026 15.3465 
32.3353 11.4675 15.0364 
28.6458 12.0448 15.0726 
27.5709 12.4642 16.1595 
32.4573 13.2565 16.6111 
38.6022 8.89552 16.9385 
33.0954 8.28943 17.7304 
32.7615 7.18469 18.4768 
28.4075 8.20202 18.8016 
31.4445 8.62028 18.6526 
30.9345 5.53363 20.0701 
30.7079 5.78309 22.1256 
32.0372 2.45746 22.9291 
32.0874 3.23054 22.8795 
34.0093 4.80621 22.836 
32.3496 5.20987 22.9186 
34.0332 5.1577 22.9503 
30.7034 5.93858 22.6012 
34.0361 5.79457 22.9894 
34.0387 6.57446 23.4091 
27.9726 8.41152 23.1932 
30.2949 4.64194 26.2125 
28.646 9.7158 5.50978 
36.5705 2.9847 8.25159 
36.2261 7.6339 8.27672 
34.7724 4.59747 8.59075 
30.8874 8.65712 9.18397 
26.5645 6.41387 11.8194 
36.0647 5.87944 14.6027 
34.5883 8.30146 14.6088 
27.2138 8.51389 14.3691 
31.9455 9.39035 14.4004 
28.1191 10.4178 14.6402 
26.5165 10.5986 14.9458 
28.6709 11.9977 15.062 
28.9693 12.4384 15.1504 
32.4304 12.4041 15.2422 
34.6225 11.8068 15.5296 
34.3856 7.16201 17.9843 
34.0575 5.75445 23.0066 
27.5954 7.19419 22.6988 
35.1786 7.35615 4.57547 
35.138 7.36606 5.33578 
33.8904 8.47698 5.26069 
30.3383 9.5378 5.54445 
27.8182 10.7494 6.27801 
35.1564 9.20131 6.76475 
35.1861 9.19552 7.22463 
34.8138 1.17118 8.33718 
36.6167 2.92378 8.24253 
35.1455 9.32617 7.98265 
33.1107 11.0187 8.02661 
34.8444 3.42047 8.62202 
34.8554 4.46829 8.55263 
34.7717 5.97426 8.57125 
34.6313 4.19552 14.0975 
36.2425 5.35777 14.6079 
34.6152 7.32474 14.4512 
36.0003 7.40845 14.6649 
33.2227 7.99356 14.295 
32.0445 9.34617 14.4498 
32.3584 10.5904 14.6765 
37.5164 5.86644 15.0516 
37.2174 9.48483 15.389 
33.4697 11.0528 15.0367 
34.6464 10.749 15.1378 
34.5913 10.799 16.3221 
29.6909 10.3058 16.9788 
35.9936 7.74531 17.5472 
38.7026 8.65923 17.9953 
32.8075 6.73901 18.7861 
31.5904 8.82401 18.5314 
38.7016 8.64348 18.587 
32.3796 3.14549 22.936 
32.483 4.05537 22.8104 
27.697 7.31402 22.7017 
27.9138 7.93031 22.7886 
35.7139 4.6303 3.26433 
35.7487 5.39762 3.08619 
35.6319 3.8471 4.05386 
35.6713 4.44161 3.75274 
35.6094 3.89034 4.36302 
28.9508 11.0726 6.49092 
33.221 10.6413 6.75468 
30.3762 11.2542 6.57296 
36.782 7.44961 7.57121 
36.7399 7.91524 7.2725 
35.2291 1.14004 8.33249 
35.3681 2.58826 8.37531 
36.6984 4.60257 8.24453 
35.4869 5.73809 8.38994 
35.3998 8.93774 8.13811 
33.7962 6.79415 11.6706 
27.7637 7.80622 12.1965 
33.4496 7.08647 13.694 
36.4898 4.74826 14.6357 
34.7101 5.34135 14.1884 
33.4518 8.00876 14.3664 
31.1371 9.42595 14.387 
38.0337 5.37141 15.1645 
36.3431 7.45219 14.736 
37.5475 8.04696 15.266 
34.9727 9.02576 14.7948 
36.1104 8.81768 15.0289 
34.8093 10.0087 15.0409 
34.8067 10.6579 15.1524 
27.6337 11.3986 14.9848 
31.7656 11.4536 14.9988 
36.2253 10.4334 15.5463 
33.8038 12.6769 15.9612 
34.8423 10.2689 16.401 
34.0514 12.4239 16.1801 
33.5361 9.81667 16.9273 
31.3681 7.13197 19.3389 
31.6083 7.26917 19.0175 
28.4435 7.87196 19.0455 
30.9918 5.38949 20.1561 
32.2189 2.55383 22.9381 
26.7928 4.56506 22.8109 
29.3018 6.52876 22.6906 
35.7561 4.52578 3.2766 
35.7112 3.45802 4.00281 
34.5446 8.01429 4.61602 
31.204 10.0297 4.68623 
32.4384 9.5704 5.42323 
35.6768 8.26214 6.43859 
35.6177 8.47113 6.7081 
37.083 4.10572 7.15326 
35.348 2.36447 8.36771 
36.8397 3.00817 8.21168 
36.8866 3.91507 8.19685 
35.3752 4.50328 8.38402 
36.8261 5.16073 8.21878 
36.8107 6.4721 8.1817 
33.1914 9.61508 8.37802 
27.2482 11.205 7.9155 
26.1949 6.81222 8.60703 
33.8962 6.78533 10.2079 
33.599 6.96309 13.8113 
34.7766 3.90003 14.1308 
34.9746 5.71612 14.3675 
36.497 5.95702 14.6906 
33.5768 6.93132 14.0176 
35.2349 7.20871 14.5736 
33.8267 8.65458 14.5986 
35.0996 8.64117 14.6762 
31.4256 10.6939 14.6444 
36.6505 7.72351 14.9444 
37.652 8.01212 15.28 
33.9976 9.70691 14.7628 
37.6269 8.95107 15.4066 
36.1665 10.5916 15.8459 
35.1135 11.465 15.7497 
33.209 13.1385 16.3995 
33.545 9.15608 17.1465 
33.669 9.98545 16.8052 
26.5106 12.3973 17.2208 
36.0405 7.65152 17.641 
26.4488 12.3656 17.6024 
26.5228 12.7818 17.8636 
26.449 12.8276 18.4483 
32.3506 3.2289 22.9217 
32.8115 7.57914 23.1424 
31.4398 8.76468 23.3336 
30.3343 4.55676 26.21 
28.3595 9.76727 4.81124 
32.3315 9.62537 5.46685 
31.6148 11.593 7.18863 
35.2314 0.617473 8.28708 
36.9511 3.05037 8.19625 
35.3856 4.39853 8.38453 
36.8601 5.84723 8.2014 
33.0622 8.25678 8.53926 
30.0579 8.56362 9.639 
27.8299 7.86104 12.4261 
34.8493 3.75228 14.1474 
35.1215 7.19026 14.5584 
32.5235 9.63463 14.5922 
37.7043 7.9947 15.287 
35.171 8.92186 14.8592 
35.1838 10.2577 15.1359 
36.2321 10.198 15.2986 
35.1828 10.983 15.2403 
33.4249 8.59203 17.4371 
27.1447 11.0009 17.0955 
33.3024 7.97483 17.7766 
28.0918 9.63458 17.5745 
26.4765 12.4794 17.5713 
26.4467 12.7623 18.4448 
30.3 7.61461 19.0555 
31.1784 5.47928 20.44 
25.3714 7.47563 4.34308 
31.2201 9.98889 4.74066 
31.4143 11.1427 6.50706 
35.333 2.19662 8.36202 
35.3882 3.28587 8.37734 
37.0069 3.07147 8.18854 
36.9859 4.00403 8.1782 
36.8975 5.8246 8.19268 
34.2432 8.57494 8.36272 
34.3928 8.9958 8.33145 
30.7282 9.98128 8.37682 
25.7664 6.20862 8.63816 
32.9911 8.30531 8.53932 
26.7672 9.54328 14.6047 
28.2418 9.30636 14.3981 
28.4917 9.99481 14.5681 
37.9922 6.46783 15.2041 
33.9034 10.5821 15.0178 
27.9216 11.8171 15.0307 
32.9823 11.8021 15.1402 
34.9606 10.4196 16.3058 
33.9994 12.3878 16.2097 
34.8231 8.65216 16.9721 
37.5846 8.61991 17.594 
29.4822 6.02267 21.784 
35.8021 3.48337 3.31476 
35.8059 4.40917 3.37532 
34.5825 7.97024 4.64446 
33.4101 8.88304 5.19775 
35.7449 7.99632 6.28113 
30.5304 10.9212 6.25844 
36.0015 8.13235 6.72613 
27.5129 10.9626 6.8325 
31.4451 11.2253 6.75228 
37.1316 3.85706 7.26273 
35.9762 8.61448 7.20309 
32.6134 11.4051 7.32399 
37.0487 3.23021 8.18488 
35.421 4.42611 8.38036 
36.9343 4.58972 8.08778 
36.9816 5.01387 8.16269 
30.1778 11.412 8.02952 
31.4311 11.5278 8.05075 
25.8434 6.36987 8.59955 
32.8504 7.96843 8.77501 
32.9665 8.25049 8.60528 
34.003 6.68638 9.48868 
30.0504 8.5639 10.228 
27.5914 7.60101 13.7945 
34.9902 4.42471 14.3242 
32.3879 8.18291 14.073 
38.0983 5.73242 15.1799 
36.6662 7.47911 14.9149 
38.062 7.57662 15.3291 
36.2543 8.9424 15.0656 
29.2838 11.6709 15.0066 
37.7734 8.29175 15.4281 
35.1821 9.47333 16.5733 
33.9964 10.0649 16.7248 
37.6076 8.75701 17.1789 
33.7844 9.33793 16.9961 
33.0073 12.8176 17.0111 
29.1304 8.77142 17.9843 
26.4872 12.4628 17.8107 
28.609 7.62523 19.1386 
31.1473 5.16829 20.1688 
31.1009 5.79515 21.804 
32.4753 3.93669 22.8744 
30.3765 4.37976 26.2412 
35.7452 5.40681 3.0312 
34.603 7.51515 3.18414 
35.6373 4.43062 3.86928 
34.6741 7.95936 4.00328 
35.6981 8.06541 6.28768 
32.3524 10.7073 6.18626 
37.0189 4.91889 7.25883 
35.392 1.87474 8.33354 
36.954 4.61594 8.13688 
35.4309 5.4171 8.38238 
36.9416 5.79889 8.02776 
32.8125 7.93261 8.82371 
34.9881 4.35476 14.2977 
35.2129 6.78529 14.5499 
37.758 3.69384 15.0238 
38.2319 4.68467 15.1482 
36.6127 7.33186 14.8644 
33.0414 11.4867 15.0754 
32.3851 12.8146 15.3675 
37.7117 9.25082 15.7723 
36.6854 8.8014 16.6135 
34.1684 10.8898 16.446 
34.1255 12.1466 16.1814 
33.8845 8.67726 17.2265 
33.8029 9.29437 16.9976 
27.1807 10.7212 17.2515 
32.487 8.48629 17.9152 
32.4119 9.11223 17.7215 
31.8867 7.34475 18.7787 
31.2847 4.8283 20.2644 
31.2592 5.17393 20.0463 
26.7925 3.20542 22.7363 
34.5602 7.59215 3.26064 
34.6001 8.04502 4.08736 
31.1964 10.1583 4.02539 
34.4465 8.00881 5.25621 
33.5022 10.5492 6.79482 
30.1576 11.2439 6.52222 
28.6099 11.2252 7.10368 
30.157 11.4187 7.39748 
35.333 3.81168 8.36139 
36.9649 5.28763 8.17193 
36.9563 5.79032 7.97278 
34.2257 7.99426 8.38589 
32.9983 8.62584 8.45248 
30.2043 9.94499 14.5551 
36.586 7.25823 14.8391 
37.9711 7.52738 15.2938 
36.5293 10.0412 15.3022 
32.1057 12.1555 15.1191 
32.389 12.4346 15.24 
28.6188 12.6673 15.3306 
35.3858 11.1544 15.5399 
28.6301 12.7177 15.553 
35.193 9.94203 16.4147 
28.2043 11.9785 16.2295 
33.2215 12.7871 16.9098 
32.3671 8.48303 17.9783 
27.9542 9.21904 18.0203 
31.8055 7.07524 19.0191 
31.3152 5.17675 19.9851 
31.2105 5.2834 22.0645 
28.1816 6.69053 22.9262 
35.6318 5.71379 3.40228 
27.7384 9.56067 3.24306 
35.5647 4.45734 3.79026 
35.6139 5.83329 3.90635 
34.5177 8.11219 4.13766 
32.1261 9.44764 4.1403 
27.9127 9.80768 4.13354 
35.512 4.52377 4.20822 
33.2425 9.03418 5.2575 
36.9905 5.13278 7.20024 
35.1707 1.01546 8.31225 
35.3979 5.54642 8.38754 
34.1962 7.9706 8.3929 
35.2348 3.20817 8.42674 
38.2521 4.50404 15.1428 
36.5827 6.90348 14.8354 
32.0074 11.6144 15.0293 
28.6046 12.5108 15.1705 
32.3831 12.7793 15.3584 
35.369 11.1405 15.6465 
35.1936 8.90025 16.7618 
30.611 11.4838 16.5138 
33.4399 13.0136 16.4344 
35.1044 8.06112 17.2041 
33.7954 8.71646 17.2379 
27.1997 10.4265 17.4157 
28.501 9.9913 17.2154 
30.3857 10.2058 17.1145 
32.7107 9.99211 17.2788 
26.2891 11.634 17.161 
32.3565 8.18578 18.1062 
32.4734 9.20887 17.6486 
31.9997 7.4096 18.6712 
31.31 4.80741 20.1679 
31.2274 4.88018 22.3579 
27.8044 9.56674 3.27065 
34.4336 7.64476 3.59453 
32.2976 9.96647 4.01259 
34.399 8.0619 4.64176 
29.564 10.0371 4.45851 
32.076 9.96429 4.75526 
35.654 8.23788 6.38863 
36.9763 5.23973 7.17094 
35.1163 0.943553 8.30789 
35.1945 2.17844 8.36402 
36.9241 5.45228 8.19624 
35.4257 6.20215 8.35985 
36.9172 6.01484 8.11585 
36.9052 6.50091 7.97812 
33.7974 6.86575 12.1902 
33.7673 7.44822 14.194 
35.1412 7.2279 14.5568 
32.6025 8.77287 14.3545 
28.7771 9.9839 14.567 
34.0077 9.56152 14.7144 
30.9737 11.7315 15.0059 
34.2326 11.4108 15.194 
31.1439 12.4107 15.1376 
33.4584 12.8651 15.8143 
34.1244 10.7651 16.5054 
34.1893 11.3904 16.3024 
35.0928 8.09158 17.1871 
27.2224 10.46 17.3921 
26.3737 11.6984 17.2677 
32.3776 8.65759 17.8986 
31.3251 4.78915 20.121 
32.8175 4.55451 22.9883 
28.5943 7.57126 23.7602 
35.5435 6.7361 2.67682 
35.5912 5.72342 3.27214 
35.5536 6.58814 3.11517 
34.2286 7.64409 3.34039 
34.5107 7.93928 3.22558 
34.4126 8.51942 3.07921 
35.5585 5.97914 3.90571 
34.2782 7.63084 3.60573 
35.4736 5.51609 4.61817 
35.5068 5.83363 4.36752 
33.1526 9.0062 5.40118 
32.085 10.0005 5.21143 
35.6329 8.62547 6.83625 
35.181 1.93215 8.34809 
36.9013 5.41566 8.20275 
36.8822 6.72753 7.99904 
24.9432 8.67986 8.20588 
35.1871 3.23713 8.44346 
35.2336 5.84706 14.4885 
33.7691 7.39967 14.1912 
34.3901 11.6132 15.2487 
31.2105 12.5007 15.1547 
34.0071 9.98323 16.7246 
36.7307 9.83924 16.1393 
35.3195 10.5824 16.1972 
34.3943 11.5069 16.2181 
37.7731 8.88416 17.2834 
27.2486 10.4376 17.4028 
29.9914 9.98415 17.1732 
32.9632 10.7049 16.9627 
26.4741 11.743 17.2581 
32.3121 8.2058 18.1135 
32.4238 8.71899 17.8464 
37.7686 8.84907 17.7527 
32.5614 9.30569 17.5619 
31.2475 4.72713 22.3314 
32.8217 4.0923 22.9374 
31.3681 4.51063 22.562 
35.4073 7.42772 1.03285 
35.3685 7.5798 1.88472 
32.8347 9.51309 2.47132 
33.0986 9.60335 3.26423 
31.7983 10.2226 3.25364 
33.9743 8.57584 3.7193 
35.3924 6.81416 4.24365 
32.8262 9.26123 4.48315 
35.3492 6.90523 5.32994 
35.255 7.24419 5.1917 
35.5608 8.68872 6.79175 
30.4634 11.118 6.38993 
36.81 7.39247 7.55621 
34.6874 -0.15115 8.29766 
34.9028 2.24444 8.38467 
36.8492 4.72477 8.21255 
36.842 6.72288 8.11457 
36.7942 7.18612 8.04576 
32.268 11.607 7.94576 
33.7969 6.86305 10.22 
35.263 8.48516 14.6741 
30.0219 9.42752 14.4217 
36.8631 5.39424 14.8451 
36.6945 8.68201 15.1139 
32.1047 11.494 15.0018 
37.9767 8.97321 15.7375 
34.533 11.9851 15.8779 
37.9579 9.21398 16.4169 
34.1428 10.1111 16.6744 
33.2019 10.8555 16.7595 
34.4237 11.3838 16.2312 
33.5275 12.1488 16.5122 
26.198 12.8822 16.658 
32.796 9.24746 17.4353 
33.2349 9.45695 17.1731 
34.0282 9.38346 16.8976 
33.2926 10.0334 16.9526 
33.7915 7.98625 17.5677 
32.5493 8.74345 17.763 
30.6373 7.33309 19.3369 
33.7901 6.77647 23.3816 
31.8697 5.64066 24.1436 
35.4244 7.5545 1.92827 
26.1545 8.80944 1.90212 
35.3868 7.27044 4.00369 
26.1222 8.65693 3.59899 
34.0385 8.54563 3.65636 
35.3721 6.78709 4.25517 
35.3245 7.15367 4.70655 
30.268 9.8825 4.34211 
35.3135 7.18326 5.11966 
30.2354 10.0061 5.19694 
34.3538 9.88028 6.8338 
36.8057 7.80748 7.26047 
36.8034 7.17879 8.05617 
35.0525 3.41782 8.49376 
35.1663 4.6401 8.40814 
27.9016 8.53955 8.72046 
31.4221 9.36984 8.56468 
29.8653 9.02636 14.1991 
36.7645 5.42301 14.7927 
38.0585 7.37008 15.2698 
36.6864 8.56315 15.0939 
33.1225 10.5707 14.8463 
32.0969 11.3515 14.9727 
34.2106 10.175 16.6493 
34.4175 10.7344 16.4032 
31.4383 12.746 16.2004 
28.603 9.67159 17.4024 
33.0799 9.60739 17.1863 
33.1709 10.1417 16.9652 
33.8388 7.9668 17.5615 
30.0095 9.43699 17.5193 
32.3492 7.25398 18.5877 
31.6477 4.53743 22.5896 
28.3547 5.22249 22.5982 
27.0329 6.56627 22.6779 
28.0905 8.231 22.9264 
29.8505 4.71318 26.4359 
34.7759 7.67677 2.02756 
34.8437 8.23054 1.83693 
34.8481 8.27048 2.18912 
33.454 8.84379 2.61506 
33.4436 8.85286 3.99812 
29.4914 10.0491 4.39365 
34.6329 7.88261 5.1691 
34.8149 9.5796 7.45054 
35.9447 1.06449 8.22659 
36.0808 1.89235 8.24959 
36.0491 3.13059 8.29707 
34.8529 9.38763 8.09593 
34.4565 3.84818 8.84716 
34.633 5.9961 8.63795 
32.034 8.29383 9.01096 
34.2805 3.94079 9.40921 
34.2978 3.84204 10.1081 
30.5135 8.60349 10.0809 
34.2976 3.84593 10.6233 
34.3207 3.81967 10.9505 
33.2687 7.25855 10.7826 
30.5801 8.6 10.8534 
34.2982 3.86157 11.6368 
34.2783 3.88912 13.5386 
34.9427 8.97997 14.7528 
32.8387 11.2726 15.0295 
34.1974 11.5827 15.2052 
35.1873 9.60498 16.5056 
34.0428 10.2379 16.6586 
36.1383 10.1676 16.1798 
34.2142 12.0666 16.1475 
28.416 10.0288 17.2051 
28.5206 10.5985 16.8553 
31.4135 10.7843 17.1105 
32.4647 10.8882 17.3411 
32.1073 8.4045 18.1733 
32.427 8.81992 17.8185 
38.7441 8.57351 18.0587 
27.894 9.03987 18.23 
38.7594 8.51417 18.5281 
31.2773 5.19101 22.0712 
33.4382 9.37546 3.38822 
34.7073 7.85806 3.76081 
32.3928 9.6144 4.0564 
27.5672 9.52773 4.27324 
32.4444 9.64758 4.63759 
34.7321 7.79944 5.17206 
33.4661 8.85737 5.21052 
32.4466 9.66057 5.43165 
33.4394 9.2854 8.38295 
27.85 9.96317 8.35131 
31.3432 11.289 8.18863 
34.3566 3.88408 8.91462 
31.9843 8.36709 9.47767 
30.5881 8.60825 11.6005 
36.2215 8.00904 14.8876 
34.9412 9.37833 16.6844 
33.9589 10.2694 16.6633 
33.743 9.4312 16.9724 
32.5981 9.97533 17.3817 
32.597 10.7483 17.2647 
32.3345 8.85204 17.867 
37.5534 8.58722 17.574 
26.4241 12.0926 17.6114 
34.626 6.91066 18.2872 
30.7547 8.65635 18.2581 
31.7698 7.13428 18.9944 
31.3409 5.54747 21.4069 
32.6249 3.76575 22.9013 
31.6547 6.2226 22.8768 
31.3289 5.38343 24.5755 
35.3989 7.50249 0.94646 
31.1819 10.0889 1.83569 
34.0535 8.58807 2.37207 
30.2623 10.4012 2.62681 
35.3769 6.77776 3.04413 
31.2303 10.0907 2.94663 
31.5991 10.1011 3.86137 
34.0074 8.20667 4.45298 
36.8959 6.57909 7.36409 
34.6549 0.376826 8.33093 
34.929 1.6324 8.36304 
