ply
format ascii 1.0
comment Created by CloudCompare v2.11.1 (Anoia)
comment Created 2026/6/4 上午12:05
obj_info Generated by CloudCompare!
element vertex 1884
property float x
property float y
property float z
end_header
33.4096 4.48966 20.5779 
31.6717 -3.39017 21.9743 
33.6895 1.92159 22.9645 
26.1381 -2.88074 0.934338 
25.9598 -2.73984 1.22849 
27.1988 -5.16184 1.82509 
27.0962 -5.21351 2.1848 
26.2413 1.25025 2.50765 
27.2003 3.66935 2.62584 
30.4263 4.04118 3.8028 
30.6076 4.06568 5.87097 
30.6167 4.068 6.56992 
29.5557 -5.57635 9.71422 
32.1536 -8.71102 11.0773 
32.3684 7.06208 10.9046 
28.767 -0.799673 11.4256 
30.1768 -3.19615 12.908 
32.214 4.33614 12.9923 
30.1771 -3.19505 13.6501 
29.7954 -0.82427 14.221 
33.5223 -9.16676 15.0005 
31.0347 4.08655 15.2439 
29.9927 1.6462 18.6001 
32.1292 -5.98819 19.7473 
32.7314 4.4048 19.7965 
37.7686 -0.992213 26.3626 
23.8986 -1.66666 0.476521 
26.0099 0.280009 0.982629 
27.4388 4.56516 2.39739 
28.9924 -2.42934 3.74568 
24.0345 -1.66588 3.79873 
27.946 2.35007 5.37372 
31.5819 5.45691 5.24326 
32.6592 -10.547 5.94852 
28.4093 -4.37668 5.94568 
32.718 -10.5518 7.12631 
32.9982 -10.687 7.34927 
32.6086 8.06481 7.41018 
32.7326 8.10186 9.35653 
32.9165 8.35399 9.53544 
33.1044 -10.6759 10.125 
31.2719 -7.23556 10.2557 
31.59 -7.4952 9.94752 
28.999 -1.92126 10.2085 
33.0782 -10.6404 10.7309 
31.2724 5.29601 11.0031 
29.7725 -2.30866 15.8537 
33.0225 5.88534 15.8629 
32.9485 5.58479 16.9946 
33.2998 5.81501 17.2384 
33.7901 -8.00522 18.7435 
31.6986 2.98399 19.908 
32.3092 3.02039 20.8141 
33.7915 -2.45317 23.6475 
31.4089 -7.37809 5.11453 
31.39 5.22866 5.0611 
32.9386 -10.6635 6.21822 
32.5742 8.203 6.75349 
32.6096 8.15969 7.36972 
32.6245 8.22303 7.91977 
32.7621 8.20265 9.31686 
32.9115 8.34356 9.61037 
31.6022 -7.49264 9.90393 
29.0092 -2.26147 10.0036 
28.9865 -2.01052 10.2504 
33.3017 5.7443 12.4349 
32.7551 8.20509 12.8732 
32.0826 -7.49931 15.1116 
32.3754 5.4897 15.0013 
29.3907 -2.17832 15.4582 
29.8234 -2.23246 15.9197 
33.0046 5.74359 15.9526 
32.9993 -7.81356 17.0859 
33.1668 5.71345 17.2912 
33.1935 5.65162 17.8178 
33.7758 -7.99525 18.7385 
31.7027 2.89616 20.0178 
32.2605 2.93708 20.8238 
27.5314 4.62429 3.36982 
32.5515 8.22365 5.99332 
32.6102 8.20712 7.34949 
28.4729 -4.38979 8.07926 
28.4796 -4.38979 8.74188 
28.4427 -4.38306 9.40185 
31.4259 -7.40166 10.2231 
29.022 -2.1831 9.9838 
28.4862 -4.38763 10.7592 
28.3325 -4.38974 11.9419 
32.5462 5.48507 14.6075 
33.1936 5.67769 14.0531 
32.1403 5.4126 15.3077 
29.8488 -2.19436 15.9527 
32.9957 5.67272 15.9974 
32.9776 -7.80558 16.6179 
29.8991 -2.1969 17.1541 
30.3487 -2.19775 19.2332 
33.7595 -2.43297 23.5892 
26.1879 -3.21446 1.79548 
26.2047 1.14599 2.43786 
25.9279 -3.21453 3.20799 
27.7155 -5.4146 3.69217 
30.289 3.88766 5.25289 
28.6713 1.2 10.2127 
29.8105 3.65983 10.8779 
29.5934 -5.94777 11.4173 
29.7762 -3.82537 12.409 
31.0621 3.8006 12.3464 
31.2693 -6.1544 12.9543 
29.8493 -3.7539 12.945 
31.265 -6.15378 13.6667 
30.1979 -1.14789 13.6081 
33.3995 6.85016 13.5258 
29.8432 -3.75079 14.3174 
29.7151 -3.73439 15.0285 
29.5583 -3.82285 15.6329 
31.8859 -6.55493 17.8409 
30.2812 -3.59194 17.8035 
31.6115 3.7524 18.5391 
32.6199 4.01203 20.1752 
33.4268 3.91931 21.2617 
26.1301 -3.1434 1.80304 
24.0031 -0.949745 2.57255 
30.206 3.78024 3.92567 
30.2022 3.7905 5.29387 
30.0051 1.23464 12.8137 
29.7807 -3.59693 15.0456 
31.402 3.86771 17.2455 
30.4342 -3.59894 18.4969 
32.3882 -6.5722 19.2892 
32.008 3.91472 19.236 
33.407 4.01937 21.1404 
36.9202 -1.3414 27.0016 
37.2266 -1.28444 26.6936 
24.7056 -1.99167 2.62761 
27.1992 -6.62051 3.30953 
26.5471 1.84883 3.08602 
31.7932 -8.02754 3.71642 
33.2047 -11.154 4.3846 
24.1861 -1.89425 4.67952 
32.0656 -7.99393 5.99394 
32.0706 -7.99398 6.74178 
32.0616 -7.99054 7.49072 
31.9999 -7.98054 8.04681 
31.3764 4.94839 8.80157 
32.0694 -7.98947 9.38163 
30.8868 4.87057 11.5678 
32.0836 5.05812 12.3169 
29.8739 -2.33136 13.719 
30.3142 -2.54654 13.5772 
29.7671 -0.207397 13.5877 
29.8205 -2.38479 14.2621 
32.333 5.22684 14.424 
29.5799 2.26745 15.0098 
33.7176 -8.32812 17.1308 
32.6257 5.15829 17.8071 
32.9858 5.25534 18.5633 
31.2082 2.58141 19.3328 
31.4255 2.41371 19.9716 
34.2627 5.41398 20.569 
35.1843 -0.115794 25.3864 
36.0449 -0.134714 26.4414 
27.8244 -9.39406 1.84446 
25.3789 -2.28187 1.55669 
25.4006 -0.102309 1.7455 
24.8029 -2.04465 2.63614 
26.406 -4.39134 3.13442 
25.0109 -2.17679 3.41548 
24.7588 -2.05598 3.12187 
24.248 -1.96932 4.7843 
27.9713 2.175 6.0601 
31.4016 4.95795 9.54029 
32.2731 5.18885 12.4653 
29.7567 -0.17999 12.9661 
29.949 -2.42117 13.7453 
29.7935 -0.135378 13.5184 
30.1875 2.41005 14.9931 
33.7522 -8.37424 16.5789 
33.856 -8.51054 17.4059 
34.023 5.38274 19.9885 
32.4485 2.50068 21.4028 
35.9926 2.69497 24.3034 
35.1725 -0.109187 24.8477 
27.1988 -10.5616 0.531023 
23.7328 -1.19207 0.554509 
27.1953 7.5417 0.952531 
27.1966 7.54533 1.75712 
25.8013 0.781576 3.01777 
32.7562 -9.57072 4.60619 
32.7554 -9.56949 5.18248 
30.6 -6.51992 5.20281 
32.8333 -9.65278 8.77606 
32.819 -9.58074 9.65548 
30.583 -6.50831 10.1995 
32.7532 -9.62792 10.8019 
29.9918 -6.38568 11.7113 
30.1837 -3.79956 17.9134 
30.2729 -3.75071 18.5367 
31.4137 3.58086 18.258 
31.5851 3.67835 18.6205 
32.6148 3.63779 20.6113 
34.6043 -7.35347 21.4037 
36.7256 -1.6636 25.7251 
26.9851 -5.77993 3.24485 
23.868 -1.16764 3.80123 
32.8338 -9.88888 4.36555 
32.8024 -9.68354 4.65538 
32.7964 -9.68095 5.13659 
30.5917 -6.51307 5.20461 
32.2299 6.22687 5.40379 
32.8411 -9.68669 9.71326 
32.8012 -9.67442 10.2006 
32.8163 -9.73365 10.7756 
30.3873 -6.49133 10.9086 
29.5617 -1.53367 12.2032 
30.4982 3.40166 15.472 
33.5457 6.59569 15.8127 
31.1957 3.40354 17.8118 
33.8249 6.54957 18.608 
30.9226 -1.58152 20.5869 
31.2853 -1.59953 21.2285 
33.5148 3.82276 21.4523 
36.5807 -1.71756 25.6688 
26.6517 -4.75189 2.95134 
24.9569 -0.512459 2.99594 
27.4985 6.47995 3.27766 
27.6016 -4.7437 3.77272 
32.1878 -8.40434 4.56529 
32.398 -8.64937 5.36476 
31.9893 -8.16208 5.15688 
28.1527 -4.98765 8.0534 
32.6497 7.37678 7.95208 
32.1066 -8.18645 8.54086 
28.1623 -4.98829 8.71163 
28.1888 -4.99194 9.37783 
32.0427 -8.24202 10.1608 
28.2127 -4.99512 10.0498 
31.8303 -8.18826 10.8835 
28.2201 -4.99534 10.7252 
30.6021 4.47596 10.8432 
28.236 -4.99708 11.4098 
28.2494 -4.99835 12.102 
30.3485 -2.9936 12.9525 
28.2344 -4.99911 13.322 
33.6792 -8.78604 15.0182 
30.391 -5.20479 15.6331 
29.8801 -2.99695 15.9227 
29.5769 -2.6211 15.6122 
30.0032 -2.9927 16.4575 
30.2143 1.84922 19.1259 
31.1765 2.07077 19.8113 
33.8398 5.16379 20.1257 
33.9946 -5.99095 21.9698 
32.735 2.15389 22.0096 
32.4024 -3.22254 22.8516 
36.5383 -0.531886 26.1979 
27.6068 3.96112 0.521179 
25.0146 -0.4465 2.95842 
32.025 -8.32507 3.75967 
28.4361 1.81651 3.83803 
28.3744 1.81355 4.48021 
32.0459 -8.27184 5.11259 
28.3976 1.81612 5.12191 
28.0729 -4.99046 5.93907 
32.6551 7.39538 7.36631 
32.6707 7.45509 7.91469 
32.4486 -8.56032 8.83427 
32.1498 -8.29317 8.5025 
28.3869 1.82315 9.99979 
28.741 -0.39515 11.4059 
29.5199 -2.70834 15.5414 
32.0225 4.66748 17.1341 
30.4581 -2.95686 19.1195 
30.1982 1.91893 19.0274 
30.6325 -2.99437 19.6212 
33.7482 5.05432 20.1943 
32.0285 2.16575 21.1542 
28.1064 2.83858 4.52025 
27.1785 -10.7536 5.12779 
28.0447 2.86016 5.19365 
28.1155 2.85399 6.01555 
28.1373 2.84444 6.63181 
28.2167 2.8142 7.9932 
29.2098 2.98147 8.14148 
31.9668 5.80201 8.90357 
31.0089 -6.77978 9.5543 
29.6394 -4.06007 12.3762 
32.8026 -10.1884 13.0044 
29.7809 -4.02277 12.9239 
29.6716 -4.06849 13.5362 
29.6026 -4.05738 15.0075 
30.5708 3.15432 14.9726 
33.0513 6.00178 14.8294 
29.3767 -1.78699 15.4053 
29.5597 -4.16672 16.5276 
33.6454 6.13342 16.5656 
32.3827 -7.26323 17.0317 
29.8489 -4.06112 17.1388 
33.7373 6.13161 17.2028 
30.3072 -1.71859 19.2005 
30.8338 0.608373 20.0773 
34.329 -7.51054 20.5651 
32.4741 -4.59224 21.5493 
32.7993 0.646546 22.9787 
34.4186 3.35597 22.5658 
34.9322 -2.08422 25.3973 
23.7907 -1.45116 2.19719 
26.9821 2.65442 2.33401 
27.5181 -8.58651 3.19794 
25.6018 0.460469 3.0327 
26.8786 2.66014 3.10667 
31.6387 -7.19884 3.95496 
31.3972 -7.06033 4.68321 
23.9343 -1.57986 4.45253 
27.3907 7.27107 4.6313 
28.0515 2.81556 5.25375 
27.3954 7.27355 5.26944 
31.9529 5.80116 6.68263 
29.1355 2.94374 8.21501 
31.093 -6.88781 9.66382 
31.9579 5.80223 9.46335 
28.8199 2.96908 11.3419 
31.4346 5.71096 11.6083 
29.521 -4.13044 12.3848 
29.55 -4.13468 13.5023 
32.0812 -7.19419 14.431 
30.3705 3.13323 15.4189 
29.7449 -4.12227 17.152 
31.2585 3.1544 18.6043 
32.1373 3.20523 20.3843 
31.667 0.554247 21.411 
34.3865 3.40636 22.5029 
27.9089 -7.49851 0.40004 
25.9845 -2.67946 0.477913 
26.0187 -2.77583 1.11074 
26.4267 1.49874 2.41615 
25.5434 -0.518422 3.38583 
26.2408 1.51841 2.99582 
30.4007 3.98452 4.48199 
30.3926 4.00181 5.21612 
29.0143 -3.2032 5.81332 
32.597 7.20159 5.98953 
28.2275 -5.15999 7.98681 
29.6177 -5.58441 8.42653 
32.5832 7.20287 8.6425 
32.5997 7.20758 9.41158 
29.3219 -5.49859 10.2684 
32.2914 7.15437 11.6123 
31.2305 -5.99709 12.9387 
31.8635 4.41653 14.1954 
30.6721 -5.78594 15.2824 
29.838 -3.08384 15.8646 
29.7191 1.72143 17.2773 
30.2187 1.78509 19.1988 
32.7554 4.42212 19.8119 
32.6902 -5.9957 20.5633 
33.4918 4.5223 20.6239 
33.3327 -6.01752 21.3394 
33.6977 1.85756 23.003 
26.0237 -2.73543 0.472422 
27.1194 8.20158 0.453066 
27.3965 -5.21113 1.01772 
27.0855 -5.19352 2.18998 
25.5727 -0.59729 3.42739 
26.1848 1.44312 2.99856 
26.6493 1.52316 3.42468 
27.1956 8.20003 3.19006 
27.2036 8.20347 3.83066 
28.9983 -0.766334 4.48654 
29.1115 -0.785161 5.96564 
32.6442 -8.87545 6.80184 
29.1212 -0.798558 6.79048 
29.1058 -0.797101 7.451 
28.2658 -5.24863 7.95297 
29.0609 -0.794801 8.11037 
29.0272 -3.13006 8.80071 
29.0988 -0.794792 8.78403 
29.1077 -0.79397 9.45854 
30.6422 4.09816 9.40311 
29.0248 -0.790574 10.1209 
29.196 -5.50316 10.9592 
28.8896 -0.785812 10.774 
31.2102 -5.96352 13.5536 
29.5527 -0.797515 14.8899 
31.1838 4.22413 15.1367 
31.5969 -5.94881 18.5408 
34.8027 4.62916 22.2404 
27.3875 -5.18663 1.01959 
27.3148 -5.19964 1.52188 
27.1532 8.21496 1.74621 
26.3927 1.42605 2.39202 
27.1332 8.20359 2.5518 
27.2092 8.22764 3.18939 
30.606 4.11559 7.97901 
30.626 4.1194 8.68948 
29.3797 -5.52954 10.425 
29.9938 4.01428 11.6044 
29.6848 -0.779809 12.3631 
29.7818 -0.781115 14.2214 
29.3584 -0.791768 15.3831 
29.7996 -3.15668 15.8109 
29.798 -0.77786 16.5151 
29.9351 -0.779531 17.7666 
30.2793 -0.786511 19.1671 
34.7859 4.67021 22.235 
27.4243 6.75966 3.2391 
31.5888 -7.37857 4.45884 
23.6553 -1.58655 4.81698 
32.6022 -10.5352 5.2856 
28.4184 -4.36263 5.13954 
32.61 8.15226 6.75916 
31.5901 -7.47323 8.17912 
29.0009 0.337773 8.76659 
30.9992 -7.32815 11.4327 
32.8048 -10.5935 13.0379 
33.1531 5.76417 14.2248 
33.0057 5.6505 16.0278 
32.871 -7.76329 16.1912 
32.9588 -7.78864 16.6259 
33.2672 5.85233 16.3925 
33.0509 5.64206 17.1933 
33.2009 5.65477 17.8437 
30.203 0.395941 18.4961 
30.9884 2.61666 18.6468 
33.466 5.69642 18.4019 
31.1856 2.63729 19.189 
31.4211 2.97736 19.34 
34.0812 5.80273 20.0465 
32.1372 -5.1007 20.725 
33.9659 0.293515 24.1487 
34.1127 -2.44147 24.8086 
26.1891 -4.00013 3.14161 
26.8032 2.38573 3.113 
27.3904 6.88089 3.21289 
27.9935 2.47401 6.58158 
28.0113 2.41257 6.82223 
32.6216 8.23734 6.76193 
32.8002 -10.5898 7.22131 
29.1292 -2.05474 8.80055 
31.6057 5.37483 8.84747 
32.818 8.29015 8.70225 
31.3761 5.25453 10.4282 
28.4744 -4.43051 12.9762 
29.7238 -2.13609 12.9847 
29.7481 -2.16263 13.5165 
32.4737 -7.67039 14.7991 
33.1197 5.73693 16.4297 
31.0052 2.69104 18.5759 
31.4095 2.88883 19.4402 
32.1673 -5.0056 20.8481 
31.5544 -2.32456 21.4008 
27.1807 -10.1901 0.385421 
27.1912 -10.1852 1.05095 
27.4689 -5.40882 1.00557 
27.7745 -5.47182 3.80251 
30.0026 3.68421 3.62865 
27.2228 -10.1937 4.50126 
29.9128 -5.8909 5.15657 
30.1561 -6.05475 5.27803 
29.0055 -3.31698 8.80176 
30.3033 3.91738 9.96688 
32.6795 -9.5044 10.8282 
28.6721 -3.39276 10.9411 
32.1415 6.60531 10.9448 
29.7256 -3.82883 12.347 
31.2028 3.85119 12.8254 
29.84 -3.73264 13.5743 
29.7047 -3.32042 15.6831 
31.3515 3.87519 16.4068 
31.9306 -6.38612 18.5056 
27.2347 -10.1974 1.87431 
25.5965 -3.06075 3.0593 
27.0374 7.89176 3.20176 
27.8236 -5.54609 3.83687 
30.0005 -5.96066 5.08766 
28.8431 1.20876 5.94987 
28.9974 -3.38699 8.80203 
32.2295 6.71773 10.7613 
28.4892 1.20288 11.5347 
29.566 -1.01895 12.2038 
29.9571 -3.5967 12.8813 
29.9367 -3.59863 13.5983 
29.943 -3.59818 14.3481 
29.6573 -3.40229 15.6192 
32.6704 4.04452 20.2072 
37.6263 -1.27543 26.2928 
27.1311 -4.62998 0.983081 
26.9681 -4.61757 1.7826 
25.0343 -2.00278 1.79504 
27.5155 2.23843 3.81141 
27.8125 -4.59237 4.49118 
27.9959 2.31776 6.56201 
28.0145 2.28803 6.84244 
31.4086 4.97049 7.35908 
32.6512 7.8941 11.0007 
31.3485 -7.78517 11.5327 
32.0317 5.07049 12.164 
29.8045 -0.173266 13.535 
33.0451 -8.2081 14.9986 
29.6324 2.28901 15.1041 
29.6757 2.29833 15.7165 
29.6555 2.29427 16.3848 
30.9974 -5.24474 17.8071 
32.9864 5.24287 18.6074 
33.9234 5.23925 20.1124 
32.8153 -5.39502 21.3186 
35.8229 2.95731 24.2184 
27.0819 -4.54635 0.952004 
26.9138 -4.5251 1.82885 
27.3144 -6.79459 3.06621 
26.3944 -4.37222 3.13867 
27.8848 -4.59876 5.12961 
31.2024 4.98077 10.2623 
31.0065 4.96005 10.945 
33.0343 -8.19801 14.9958 
30.5947 2.40935 17.2583 
30.9641 2.47929 18.8071 
33.409 5.30653 19.2561 
31.6445 -5.19958 19.8178 
34.0111 5.33172 20.0715 
32.0832 -5.19615 20.5652 
33.4723 2.60288 22.4301 
27.1277 3.12699 2.37109 
27.3207 -10.5884 3.26405 
25.7521 -3.27686 3.1384 
32.5012 6.4878 3.83205 
32.7929 -9.63636 4.51896 
30.5572 -6.49167 4.50098 
30.003 3.34821 4.65777 
32.3852 6.26579 4.57644 
32.5332 6.49517 4.39195 
31.971 6.01792 5.1179 
32.8286 -9.5666 6.15285 
32.8305 -9.56864 6.63692 
32.8474 -9.63684 7.22038 
32.8414 -9.63376 7.99792 
29.8029 3.33308 8.05186 
32.8403 -9.642 9.57164 
29.7926 3.33233 9.60055 
32.7569 -9.63557 10.792 
29.5216 3.39346 10.811 
28.7837 -1.27681 11.4412 
31.0903 -6.59342 15.4837 
31.0255 3.3209 16.9719 
30.202 -3.80772 17.9408 
31.3682 3.66639 17.8468 
31.6053 3.69878 18.6367 
32.9251 -6.82664 19.8724 
32.1248 3.60311 19.9227 
33.9457 -7.19567 20.5973 
31.5872 1.00075 21.3733 
32.8439 -4.48727 22.03 
33.2172 1.05477 23.7223 
27.1709 -5.79811 2.62559 
25.8143 0.802423 3.02182 
32.8336 -9.72919 4.51585 
32.3624 6.26743 4.62395 
28.6761 -3.79822 5.01885 
32.8558 -9.67404 6.20436 
32.8546 -9.67412 6.64022 
32.8647 -9.72908 8.00341 
32.7944 -9.65812 10.1978 
29.2268 3.19968 11.0094 
29.4719 3.34668 10.7801 
31.1406 3.40884 12.9433 
31.0622 3.41611 16.0784 
33.5398 6.60849 15.8191 
31.8643 -6.71135 16.3971 
31.0506 3.41493 16.4797 
31.0712 3.41006 16.9426 
31.3114 3.59121 17.8224 
30.2188 -3.81778 18.576 
32.9241 -6.8943 19.7652 
32.8652 -4.36222 22.1254 
31.2934 4.7396 3.76519 
32.0299 -8.21565 4.50901 
31.0382 4.64873 4.54064 
32.5021 -8.66052 8.80181 
32.492 -8.65582 9.3777 
32.2587 -8.36511 9.43415 
33.3242 7.3613 12.4681 
28.4472 1.9606 13.089 
29.7027 1.79327 12.8364 
33.7908 -8.79992 14.4128 
29.6239 -2.60784 15.0514 
30.3802 -5.18312 15.6309 
32.5018 4.78659 18.6109 
33.0227 4.859 19.5092 
31.718 2.28865 20.5665 
35.4018 -6.03044 23.3023 
36.5547 -0.509808 25.6569 
36.2363 -0.305004 26.2939 
36.2985 -0.444893 26.6368 
27.6061 4.01172 1.0032 
25.1396 -0.38577 1.77756 
27.5543 4.0052 1.64487 
27.2003 3.95626 3.23826 
31.3362 4.67294 3.85751 
30.9101 4.56882 4.50333 
32.3777 -8.4749 6.02036 
32.3899 -8.47686 6.77825 
28.0991 -4.99236 6.75063 
28.1345 -4.9976 7.40321 
32.6551 7.41027 7.36839 
32.3708 -8.52615 7.77565 
32.4339 -8.54011 9.31693 
32.6327 7.46485 10.2002 
33.2191 7.49205 12.4752 
28.1671 -4.99189 12.7969 
33.8276 -8.79817 13.7887 
29.5661 1.87277 13.8425 
32.2558 4.7858 17.8449 
30.9311 -2.99309 20.2094 
31.2005 2.07333 19.8526 
33.7913 5.06472 20.2397 
31.6398 2.19485 20.5241 
33.7964 -5.94156 21.8608 
32.8145 2.18 22.0607 
27.2261 2.5809 0.993817 
27.3122 2.76071 1.20648 
31.0327 -6.95208 5.16875 
31.9481 5.81481 5.94988 
31.0517 -6.84435 8.0443 
29.105 2.93273 8.15651 
31.0514 -6.76991 8.82647 
31.1055 -6.86277 9.53614 
32.9117 -10.0683 10.9736 
32.3099 -7.22766 16.5087 
30.9737 3.22049 16.9984 
29.9029 -4.09883 17.8771 
30.1573 0.611514 18.0644 
33.0407 -7.39275 18.8402 
33.3909 -7.47073 19.4474 
31.4382 3.03617 19.2976 
33.8915 6.00876 19.1714 
34.0776 6.02047 19.8303 
34.0861 -7.41426 20.4507 
35.2003 3.76123 22.8966 
34.1046 0.713777 24.7532 
27.2529 2.65742 0.95068 
27.2023 2.69473 1.69759 
23.7939 -1.4367 2.44279 
27.5165 -8.56436 3.20056 
26.2397 0.459054 3.44471 
31.8956 8.48824 3.59882 
32.9388 8.78896 3.92309 
31.6079 -7.17136 4.36525 
31.0597 -6.95673 5.20526 
31.2973 -7.00909 9.00829 
31.1615 -6.88396 8.75472 
29.7636 -1.78369 12.9905 
33.3669 6.0097 13.6876 
31.4235 -7.01978 15.6086 
34.0774 6.12637 19.722 
35.1885 3.66161 22.8855 
26.696 -3.786 0.511815 
26.7231 -3.78884 1.12691 
27.6982 -8.59759 2.53715 
31.2166 -6.94098 8.71885 
30.3856 0.608505 12.921 
33.408 6.08628 13.0888 
30.3444 0.608862 13.6514 
29.9887 0.60291 14.287 
32.8821 6.00394 15.1972 
29.742 0.600363 15.7173 
32.6016 5.9534 15.5192 
29.9657 0.606114 16.5804 
32.3649 -7.23234 17.2133 
33.7994 6.17634 18.5746 
30.4943 0.620757 19.2686 
34.2294 -7.59308 20.3561 
34.4048 -7.67234 20.8185 
31.2103 0.611576 20.7189 
31.7132 0.622205 21.439 
33.4049 -1.94419 23.3624 
35.979 -5.09758 24.4293 
30.4114 4.02325 5.21955 
28.196 -5.20365 6.76206 
32.5871 7.20404 7.45501 
28.2608 -5.21244 8.07189 
29.3683 -5.51591 9.77384 
32.2639 -8.79477 10.807 
29.7574 -3.06001 14.9727 
34.0051 -9.19389 17.6835 
32.4018 4.39663 19.2047 
33.8705 4.71372 20.782 
31.71 -3.3521 22.0016 
33.9255 1.92416 23.1338 
36.4638 2.00501 25.0831 
36.7513 1.81687 25.656 
32.8056 -8.94448 3.9374 
28.3466 -5.24423 8.62591 
29.8354 -5.6098 9.19904 
30.1529 -3.19584 12.3571 
34.0582 -9.23424 17.658 
32.8035 4.4577 19.8406 
33.7376 4.64368 20.7339 
27.5387 7.16115 0.440723 
26.8035 -3.99884 1.11391 
23.9908 -1.72598 1.13696 
27.5677 7.11571 0.928165 
23.9994 -1.7199 2.35244 
32.4593 -10.6537 3.84201 
32.5376 -10.285 3.65021 
28.3234 2.51431 4.00044 
29.1178 -1.9674 5.91596 
31.609 5.38609 5.9317 
32.6189 8.17435 6.00165 
31.6513 5.39446 6.65992 
31.6398 5.39366 7.38714 
32.7955 -10.5398 8.71838 
32.9745 -10.6315 8.93358 
32.7638 8.15278 8.59564 
31.6259 5.3948 9.5906 
33.1872 -10.6927 10.81 
33.088 -10.6225 11.6221 
31.2169 5.3269 11.4354 
29.5493 -1.92376 15.0053 
30.6649 2.58343 17.1985 
33.1608 -7.80814 17.8126 
29.9626 -4.53417 17.8823 
31.0006 2.63294 18.6605 
31.3631 2.92393 19.2546 
31.9994 -4.6782 20.8551 
32.1921 -2.32613 22.2019 
33.7281 -2.39597 23.5629 
35.6107 3.34328 23.6008 
33.8504 0.352809 24.5985 
27.8013 -6.59804 0.93787 
27.3972 -6.49955 2.58917 
24.0058 -1.65388 3.22449 
32.5225 -10.5775 3.88956 
32.6403 8.26256 6.00371 
28.4042 -4.36748 6.76621 
31.6722 5.40313 6.66185 
28.4195 -4.36879 7.42107 
31.6635 5.40282 7.38975 
32.8006 -10.5522 8.66669 
31.674 5.40694 8.85907 
32.819 8.2601 8.55717 
31.6452 5.40319 9.59419 
31.2336 5.33551 11.3984 
29.3865 -4.41056 12.1979 
29.5391 -2.00935 15.0509 
33.1454 -7.79901 17.8063 
34.0678 5.92113 19.9511 
32.0894 -4.78254 20.9083 
31.6027 0.382054 21.3786 
35.7965 -5.39363 24.1464 
28.057 -8.09021 0.919194 
27.2576 -10.1902 2.53327 
32.8059 -9.46034 7.21345 
32.8022 -9.458 7.98925 
30.0244 -5.99653 10.0901 
28.6751 1.23878 10.1094 
29.7999 -5.9512 10.7528 
32.137 6.624 11.019 
32.0536 6.61463 11.6042 
29.5988 -0.930237 12.2513 
31.2047 3.87265 13.5927 
31.4037 -6.12967 15.9719 
30.7106 3.80906 15.5686 
33.4938 6.73781 16.3998 
33.6103 6.70793 16.648 
31.5456 -6.26448 17.1847 
32.3812 -6.61032 19.2057 
31.0037 1.21231 20.6192 
25.9225 -3.07084 3.42618 
30.0813 3.72096 4.99911 
28.8533 1.21444 6.76872 
28.8383 1.21483 7.4235 
28.7948 1.21407 8.07737 
28.8539 1.21764 8.7485 
28.8317 1.21775 9.41203 
28.6139 1.21536 10.73 
32.3927 -9.25168 11.445 
33.3859 6.80628 15.031 
31.4514 -6.20231 15.9911 
33.4624 6.8253 16.3408 
33.611 6.8294 16.7146 
37.0166 -1.33839 27.072 
26.6873 -4.39361 2.35347 
25.4015 -0.238375 3.17795 
33.2275 -11.1314 4.45521 
23.9725 -1.83817 4.67832 
23.6433 -1.79873 5.14714 
27.9704 -4.596 5.93246 
31.4077 4.99299 8.81397 
31.0516 5.12741 11.434 
29.9217 -2.35531 12.8849 
29.912 -2.3618 13.5576 
29.8248 2.3226 15.1941 
32.3827 -8.02049 15.6175 
29.8508 2.32723 15.6883 
30.5963 2.56974 16.3735 
30.7699 -5.04207 17.0126 
33.8285 -8.26703 18.0195 
32.6979 5.21219 17.8455 
30.7835 2.40159 18.3849 
33.0162 5.26056 18.6335 
34.0598 -8.2158 19.3456 
34.1163 -2.60414 24.8222 
35.0495 -0.0718098 24.7811 
27.8115 -4.59769 3.84434 
31.7957 -7.91869 4.50851 
27.9933 2.19405 6.54516 
31.9976 -7.95721 8.60291 
28.1802 -4.58746 9.36899 
30.9606 5.02335 11.4519 
29.9872 -2.43429 12.8624 
29.809 -0.143682 12.9823 
29.9672 -2.4343 13.5726 
30.3661 2.4142 14.4381 
29.9102 2.33553 15.2286 
33.8904 -8.3291 17.9806 
33.8896 -8.2763 18.4747 
31.4645 2.46348 20.0001 
33.4068 -0.135519 23.3281 
27.1692 -10.516 0.395368 
23.8988 -1.02509 1.77186 
27.3838 3.21702 1.5886 
26.0939 -3.36821 2.40288 
30.4708 -6.45426 3.80059 
27.2186 -10.5291 4.5036 
27.185 -10.3285 4.58611 
32.8514 -9.62824 6.06429 
29.1413 -1.72422 5.90833 
29.101 -1.27872 8.12067 
32.2278 6.26662 8.202 
29.1501 -1.61344 8.80048 
29.1563 -1.71935 9.39305 
29.1544 -1.21847 9.55684 
29.8407 3.35846 9.48025 
29.0357 -1.27259 10.1294 
28.9032 -1.26571 10.7837 
33.4949 6.72358 13.655 
29.7349 -3.93524 15.0504 
29.3527 -1.2012 15.3894 
30.0791 0.968236 16.9266 
31.2445 3.64294 17.1832 
33.6073 6.5114 18.0377 
33.9559 6.61215 18.6704 
32.8126 -6.72796 19.8155 
33.6632 3.8171 21.6056 
32.1179 1.03948 22.6048 
35.1939 3.80016 22.8962 
27.1999 -10.5155 1.03957 
28.0661 -8.25975 0.987368 
23.8509 -1.0891 1.84482 
27.2866 -10.5347 4.00462 
27.1939 -10.5896 5.25331 
29.157 -1.47166 8.80005 
29.8813 3.36192 8.793 
29.1705 -1.56024 9.35129 
29.6002 3.33567 10.2636 
32.1228 6.21452 10.0716 
28.667 0.956625 10.7271 
29.2447 3.21454 11.016 
33.5597 6.58256 14.3945 
29.7994 -1.45761 16.5291 
31.1454 3.56098 16.3182 
30.2124 -3.84464 17.1872 
33.8883 -7.23745 20.4802 
34.7446 -7.24344 21.9567 
36.5258 -1.64807 26.7777 
25.1031 -2.24411 2.5061 
25.4179 -2.53689 2.3929 
27.201 3.8429 2.69576 
27.1195 3.84811 3.16531 
32.002 -8.19941 4.50954 
31.0801 4.58686 4.49067 
32.027 -8.20282 5.2502 
28.3971 1.7835 5.12515 
32.2813 -8.37202 7.39705 
32.2284 -8.37536 7.89227 
32.0128 -8.19322 10.1517 
28.1981 -4.95567 10.0504 
33.1269 7.55933 12.4698 
33.8632 -8.79159 12.9578 
28.1824 -5.03292 12.8322 
33.8027 -8.7802 14.4164 
30.7131 -5.20972 14.4839 
29.6713 -2.65933 14.9719 
29.5677 -2.58869 15.608 
29.6679 1.82929 17.1663 
29.8019 1.9027 17.7937 
32.5365 4.6217 19.0569 
33.276 5.12017 19.4142 
34.0186 5.23581 20.4522 
36.0737 -0.379739 25.5677 
36.3169 -0.432712 26.1394 
27.5421 -7.19294 2.57027 
25.3657 -2.46242 2.36146 
27.3791 4.005 2.27766 
27.3792 -7.19485 3.09765 
28.3815 1.84907 3.8424 
28.2138 -4.99525 4.49595 
28.1726 -4.98697 5.13939 
32.3015 -8.38639 6.00685 
32.3202 -8.38804 6.78377 
32.1273 -8.24593 8.07549 
29.7695 -2.68875 12.2548 
29.9992 -2.84659 14.3391 
29.7997 1.96735 17.7498 
32.4458 4.80102 18.4242 
31.6308 -5.54146 19.3999 
32.5998 4.73072 18.9807 
33.187 5.01253 19.4817 
31.8771 -5.48988 19.9533 
32.6193 -5.7914 20.6982 
33.9043 5.12199 20.3918 
34.4902 5.11561 21.1977 
32.4033 -3.03084 22.3647 
32.8297 2.20113 22.0709 
36.2271 -0.424341 25.5628 
27.9402 -8.80793 0.601671 
27.2029 7.42426 2.64465 
27.5207 -8.61816 3.20015 
23.9054 -1.53692 3.24648 
27.8322 2.96877 3.92915 
27.5189 7.41722 3.76385 
31.063 -6.87099 4.67288 
23.4535 -1.23753 5.13947 
31.1101 -6.82514 5.94176 
28.9987 0.518954 5.95929 
31.1065 -6.82322 6.66186 
31.1081 -6.82244 7.38461 
32.8392 -10.1535 8.80008 
31.1475 -6.85629 8.87977 
33.0055 -10.2049 12.2367 
32.2421 -7.1947 12.8758 
29.8124 -3.98869 12.9334 
33.4074 5.93808 12.9803 
32.2199 -7.19418 13.4676 
33.4204 5.96361 13.4948 
31.2353 -6.77833 15.5498 
32.2789 -7.19711 16.5646 
30.0382 -4.05867 18.5507 
32.8071 3.32977 21.1622 
32.4396 0.810844 22.7819 
35.4132 -2.08444 25.0188 
27.9664 -8.73405 0.643229 
28.0184 -8.6023 0.385749 
27.2477 7.3548 2.68314 
29.2076 0.566793 3.82875 
27.6091 7.40635 3.71562 
31.5904 -7.14498 4.36522 
27.2159 7.34907 4.59349 
31.2066 -6.92691 5.94743 
31.2039 -6.92516 6.67022 
31.2068 -6.92467 7.39575 
28.202 2.85285 7.36742 
31.2241 -6.93532 8.87018 
32.8888 -10.1644 10.5996 
30.6828 -6.80649 10.9732 
28.8695 3.00305 11.353 
33.0088 -10.1992 12.2372 
29.5926 -4.10295 12.4044 
33.4592 6.03926 12.9466 
33.0002 -10.1946 13.4724 
33.4709 6.0533 13.4097 
33.6177 6.19236 13.7423 
33.0335 6.05367 15.0169 
31.3182 -6.88669 15.5862 
31.2054 0.596173 20.7167 
32.5538 0.756842 22.8471 
26.623 -3.78267 1.61734 
27.0038 2.71506 2.33394 
25.992 -3.65934 3.15467 
31.2561 -6.96359 4.68311 
32.9689 8.80043 4.29265 
33.4962 6.09815 13.3672 
29.6841 0.616891 14.9345 
31.3597 -6.94088 15.6045 
30.0016 0.603616 17.1896 
30.0728 0.600386 17.6451 
32.9999 -7.35023 18.8215 
30.2585 0.610763 18.5254 
27.1189 8.08156 1.59303 
28.1958 -5.18748 4.49581 
26.982 8.05196 4.55237 
27.4065 -9.87671 5.32439 
28.2146 -5.18673 7.41583 
28.2423 -5.19078 8.07463 
29.7234 -5.57198 9.39832 
32.3556 -8.7941 10.2365 
28.7905 -5.39253 11.565 
33.5886 -9.12939 13.0189 
33.7036 -9.25317 12.9086 
31.0951 -5.91388 14.3996 
31.1913 -5.83532 16.4811 
33.7293 -9.16334 17.0367 
29.794 1.81494 17.8329 
33.3991 -6.23998 21.2163 
32.3621 1.79734 21.8082 
27.3993 -5.21124 0.539988 
27.1355 8.21575 0.941245 
33.6573 -9.18819 12.8103 
29.7912 1.73874 17.8744 
31.0025 -3.1792 20.256 
32.3701 1.80438 21.8129 
27.4446 6.67872 2.64286 
27.424 7.15332 2.40545 
29.757 -6.82458 3.64169 
28.4247 -4.32933 3.84604 
23.9904 -1.63514 3.80176 
28.4038 -4.32511 4.49397 
24.0621 -1.57019 5.43115 
28.0649 2.51375 5.23545 
27.5119 7.17981 5.11522 
31.6876 5.42009 5.93622 
32.7347 -10.3199 6.64635 
32.9442 8.40553 8.57603 
32.8373 -10.5319 9.53341 
28.394 -4.41258 9.40054 
28.1051 2.42288 9.35321 
31.6776 5.4242 9.60013 
32.9831 -10.6052 10.0315 
31.4169 -7.39211 10.2052 
28.1692 2.45963 10.1766 
32.4069 -7.37665 12.4474 
29.3878 -4.43315 12.201 
33.0634 -10.714 12.8969 
29.7561 -1.92855 12.9482 
29.7401 -1.98163 13.4914 
33.396 5.9068 13.5114 
32.3505 -7.49098 14.3226 
32.7613 5.69201 14.687 
32.5279 -7.44031 16.3553 
30.6745 2.60316 17.2019 
33.1186 -7.77613 17.7942 
33.5449 -7.91961 18.4611 
31.1692 2.99487 18.582 
33.7964 0.343685 24.567 
27.8014 4.7204 0.965646 
27.4385 6.8357 2.68068 
27.4662 7.08244 2.39896 
23.9826 -1.64139 3.25852 
32.6215 -10.4441 4.51597 
32.3394 8.20549 4.48434 
31.5991 -7.43715 5.42194 
24.1594 -1.64399 5.43557 
27.6049 7.12188 5.03707 
28.2067 2.50661 10.9783 
32.4846 -7.51113 12.4147 
32.418 -7.55768 14.3507 
32.3385 5.55134 15.2023 
32.8542 -7.71478 16.4937 
32.657 -7.56627 16.2514 
30.1299 -2.1868 18.5051 
34.2102 -2.4004 24.3484 
33.7918 0.340007 24.0517 
27.2002 -10.1493 1.05362 
29.4142 -5.84553 11.9156 
31.0642 3.73695 12.3645 
33.3965 6.90706 12.5129 
30.0346 -3.46369 12.8915 
30.0238 -3.43643 13.6744 
31.1639 -6.08013 14.4765 
31.5755 -6.14774 17.9029 
32.3518 -6.58295 19.1909 
30.5927 1.25351 19.3251 
32.7765 -6.65895 19.8501 
30.748 1.37859 20.4061 
31.6448 1.42168 21.8439 
34.9611 -6.81288 22.5213 
36.7149 1.79919 25.74 
26.4035 1.12082 1.7911 
27.4004 3.37871 1.65656 
32.0622 -9.19009 3.57218 
28.6869 1.25788 3.82162 
28.6748 1.29154 4.62061 
28.7918 1.18244 4.36403 
32.8063 -9.39822 6.63229 
29.4966 -5.86521 11.3986 
29.9064 -3.32264 12.2977 
31.353 3.83928 17.075 
33.7135 6.9808 16.9291 
31.6051 -6.2131 17.8165 
31.558 3.94787 17.7606 
30.396 -3.57009 18.484 
36.6191 1.7379 25.1654 
27.0766 2.21621 0.52495 
26.9704 2.22244 1.72627 
33.2089 -11.1054 4.60675 
31.437 5.01346 5.92219 
27.9904 2.19582 6.64981 
31.9956 -7.90952 7.48917 
31.4407 5.01635 7.36482 
29.0771 -2.48873 8.80028 
31.4229 5.01582 8.81703 
32.9856 -8.14896 14.9793 
32.3384 -7.98775 15.6012 
30.6533 2.59123 15.8995 
33.2539 -8.01636 16.5458 
30.5816 2.52106 16.4606 
31.1696 2.46255 19.4092 
33.3501 5.19321 19.3949 
34.1083 5.41743 20.0816 
31.782 2.36284 20.6029 
31.9916 -0.187806 22.055 
34.9082 -0.0275206 24.7934 
34.9241 -0.0266577 25.348 
27.0693 -4.50185 0.601701 
27.0465 2.14658 0.495457 
26.995 -4.45519 1.08169 
27.0437 2.15134 1.09901 
26.8645 2.18399 3.34057 
32.5049 -10.7621 4.37178 
33.1979 -11.095 4.66133 
33.3093 -8.18183 14.429 
30.4 -4.99365 14.951 
32.3242 -7.97701 15.5959 
30.4233 -4.99094 15.7263 
33.4244 -8.14935 16.508 
32.4695 5.20011 16.476 
33.9833 -8.36649 18.6236 
34.3916 -8.48068 19.9766 
30.993 -0.108567 20.6046 
27.1583 7.49398 2.61308 
30.6755 -6.39926 5.77928 
31.0243 -6.72759 6.02573 
29.1496 -1.2048 5.8975 
32.3869 6.44918 5.97631 
30.7283 -6.43143 6.59666 
29.1538 -1.2986 6.63477 
32.3943 6.45186 6.7237 
30.7166 -6.42787 7.30781 
29.1523 -1.26353 7.46084 
32.3862 6.45141 7.47228 
32.8243 -9.59558 8.77736 
30.7291 -6.48645 8.59818 
29.1553 -1.26155 8.79823 
32.3901 6.4551 9.3613 
29.5553 -1.26917 14.9001 
30.9047 3.68765 14.9463 
29.8255 -1.72888 16.6448 
29.786 -1.21516 16.4215 
32.2453 -6.7916 18.4564 
32.3848 -6.65717 19.123 
30.3662 -3.78743 19.2715 
32.7959 -6.73838 19.7666 
32.8474 -4.18983 22.1976 
34.0284 3.94718 21.7751 
36.8915 1.30914 25.811 
36.778 -1.58051 26.3614 
32.0099 6.1502 3.61188 
27.1627 -10.3945 4.63103 
27.0776 -10.4053 5.15783 
32.8282 -9.6812 5.28496 
30.7319 -6.44483 5.76244 
30.9171 -6.61097 6.06394 
30.7687 -6.46986 6.62221 
32.3727 6.41915 8.74132 
32.0666 6.172 10.2037 
31.9412 6.20155 10.799 
30.1986 -6.44935 11.4484 
29.7963 -6.1859 11.6186 
29.5443 -1.29281 12.1695 
32.2974 -6.79867 13.6648 
33.6447 6.57309 13.3895 
29.8188 -1.56478 16.6869 
29.7826 -1.30746 16.3728 
30.1246 1.07747 17.2012 
31.963 -1.58158 22.0634 
33.942 3.90187 21.7473 
36.6236 -1.64164 26.2745 
27.6053 3.98243 1.00471 
27.0021 -4.59358 1.6216 
25.1016 -0.428537 1.878 
27.4274 1.9632 3.70848 
32.5571 7.40179 3.73376 
27.9898 -5.18829 4.34346 
32.5976 7.41223 4.48587 
30.9375 4.57602 5.19759 
31.1041 4.60173 5.90449 
31.1113 4.60392 6.61615 
31.1133 4.60537 7.32981 
32.1016 -8.21004 7.94592 
32.084 -8.11416 9.49089 
31.6263 -8.19071 11.6169 
33.0386 7.61637 12.4619 
29.941 -2.67222 14.3151 
33.4948 -8.54166 14.9516 
33.6758 -8.72124 14.9103 
29.6863 -2.65718 15.7404 
33.8042 -8.74794 16.3614 
29.918 -2.60331 16.4196 
31.955 4.63396 16.3904 
30.9992 -5.416 17.2001 
29.9776 -2.67113 17.0353 
30.0541 -2.60341 17.7692 
33.7925 -8.70413 18.4111 
32.4489 4.8149 18.3991 
34.0859 -8.63096 19.1651 
32.5922 -5.84648 20.5985 
36.2549 -0.445091 26.2321 
27.623 4.01708 0.522079 
27.6344 4.05395 0.999937 
27.0534 -4.67297 1.57876 
25.1385 -0.366573 1.90611 
25.2695 -0.266265 1.54923 
25.1724 -2.34668 2.61277 
31.1415 4.61068 3.79534 
28.3611 -5.04601 4.61766 
27.6024 -9.57223 4.99758 
32.1206 -8.21879 9.54816 
28.1991 -4.93175 10.7235 
33.5207 -8.60808 15.0705 
32.0307 4.72378 16.335 
30.9961 -5.41121 17.1982 
33.7826 -8.71609 18.3862 
32.654 4.77827 18.9871 
32.5797 -5.76255 20.6776 
31.3139 -2.98052 20.8519 
33.9489 5.13244 20.4136 
25.0774 -0.366998 2.93987 
28.3183 -4.99633 4.0094 
27.9961 -4.97541 4.33675 
31.2043 4.62115 4.48502 
28.1059 -4.93007 7.39989 
32.6086 7.53423 10.9793 
33.2444 -8.59946 15.5185 
29.8081 2.00893 17.7385 
30.2232 2.01234 18.9948 
32.6815 4.823 18.9568 
31.7592 -2.98289 21.5437 
33.6834 -5.87608 21.7987 
28.0124 -8.64262 0.465535 
27.3949 7.19709 2.39934 
31.1236 -6.93142 4.56467 
27.475 7.33547 4.4738 
28.9981 0.520738 9.43891 
29.2027 2.97167 9.49587 
31.1907 3.18004 13.5679 
32.3252 -7.18968 17.2205 
33.768 6.20372 17.2254 
32.4839 -7.21993 17.8636 
29.7968 -4.15321 17.8377 
33.771 6.21034 17.8929 
33.7778 6.20766 18.5691 
34.0711 -7.61632 20.054 
31.9309 -4.59426 20.8151 
32.2296 3.10705 20.6319 
33.9451 -4.73156 22.8208 
32.7949 0.729015 23.4735 
35.31 -1.92886 25.5015 
27.3593 7.25442 2.39954 
29.8055 -6.70914 3.64133 
31.0148 -6.8931 3.95701 
27.5551 7.36683 4.3941 
29.1812 2.9937 7.58197 
30.6607 -6.78155 10.966 
33.4432 6.06877 12.488 
33.4125 6.10597 14.3252 
32.6501 6.00245 15.5391 
32.9454 -7.31926 18.7964 
33.2906 -7.39522 19.4031 
32.2192 3.20415 20.5173 
33.8896 -4.71759 22.7904 
35.1661 -1.97982 25.4195 
27.4006 -9.86314 0.376028 
25.8011 -2.56681 1.18203 
26.028 -2.74278 0.97599 
26.75 -5.14862 3.18693 
27.1185 3.79434 3.19823 
24.0792 -0.598051 4.88534 
30.7489 4.26957 7.29155 
30.4529 4.00147 8.57716 
30.7577 4.30518 8.8 
32.2383 -8.74572 10.7985 
28.449 -5.13908 11.56 
28.806 -5.38026 11.4813 
32.3251 7.21319 11.633 
33.6809 -9.02791 12.3685 
32.252 4.40614 12.9286 
33.6354 -9.21172 13.5747 
33.5718 -8.76359 13.8226 
31.228 -5.99621 13.6089 
33.5524 -8.77067 14.3605 
29.5964 1.772 14.292 
33.5533 -8.93622 15.0525 
29.5898 1.77544 16.4459 
33.701 -8.91453 17.1157 
32.1796 4.40538 18.6687 
33.3726 -6.21965 21.1978 
36.8093 -3.78184 25.9772 
37.8881 -0.848934 26.3995 
27.3908 -5.19178 0.542129 
27.3639 3.81117 2.17697 
28.2182 -5.2386 4.51208 
32.5988 7.24881 8.02964 
28.987 -0.615072 10.2426 
28.564 -5.24232 11.6357 
30.0125 4.03868 11.6111 
33.6254 -9.15597 13.5604 
33.5794 -8.92774 13.8907 
33.5634 -8.92921 14.3692 
29.8181 -0.78292 15.942 
29.8307 -0.781415 17.1219 
34.0116 -9.20682 17.5935 
30.0385 -0.784932 18.4281 
30.5871 -0.797164 19.9635 
27.7961 -6.63031 0.938371 
26.0647 -3.85428 3.25046 
23.947 -1.61312 3.17126 
26.2064 0.377456 3.44739 
31.6339 5.42492 5.39047 
27.6323 7.09739 4.99799 
32.7795 -10.3097 7.91693 
31.3542 -7.19461 8.23918 
29.1241 -1.94067 8.80067 
28.3966 -4.39365 10.0708 
33.0159 -10.5915 10.8407 
31.2078 5.19951 10.894 
33.0457 -10.5993 11.659 
33.0512 -10.563 12.3798 
32.454 -7.55122 12.3811 
33.1013 -10.6428 12.7513 
33.0268 -10.563 13.4556 
33.5398 -8.04227 13.561 
32.7796 5.81822 14.9498 
32.6235 -7.51579 16.4141 
29.6444 -4.4814 16.3975 
29.9636 -1.95955 17.8085 
30.9486 2.93426 17.8536 
30.1582 -1.98755 18.6871 
34.2052 -8.01242 19.8558 
31.7912 3.03976 20.0062 
32.9972 -4.98178 21.8559 
31.5242 5.30455 3.94451 
32.6294 8.24974 5.39076 
27.9833 2.4545 5.94803 
32.7529 -10.4022 7.86847 
31.4266 -7.28774 8.29702 
31.544 -7.39787 8.03671 
31.386 -7.35826 10.1987 
31.5265 -7.39198 9.84867 
28.2016 2.53781 10.153 
32.9697 -10.5709 10.8321 
32.4273 -7.49657 12.7902 
28.5893 -4.3936 13.0099 
33.5549 -7.95037 13.5071 
32.4221 -7.49516 13.5407 
32.7283 5.72536 14.826 
32.7339 -7.61906 16.3789 
32.7295 -7.56133 17.0808 
33.5135 -7.84919 18.6043 
33.6861 5.90851 18.5113 
33.169 3.01706 21.8059 
34.5958 -2.3236 24.6992 
27.2052 -10.2134 1.05123 
23.9847 -0.867691 0.984427 
23.9484 -0.995089 1.89501 
27.3776 -10.0129 3.2721 
27.4304 -10.031 3.76446 
32.0581 -8.89187 3.5745 
27.9876 -5.26441 4.33625 
30.1404 -5.99393 5.36623 
30.192 -5.99427 7.98632 
28.7991 1.18151 8.07867 
30.2237 -5.9983 9.4058 
29.2778 -5.72632 11.502 
29.3723 -5.81787 11.9047 
29.9968 -3.47484 13.6195 
33.4524 6.8484 13.6008 
31.3291 -6.01822 16.4433 
31.3538 -6.02411 16.9687 
30.1448 -3.40017 17.2006 
33.8084 7.02426 16.9927 
31.6115 -6.2337 17.7693 
31.6491 -6.07871 18.362 
33.2728 -6.53285 20.7007 
31.0152 -3.73462 20.7409 
31.1934 1.51657 21.1706 
33.9473 4.35998 21.2842 
28.0462 -7.98206 0.883743 
27.5049 3.40394 1.02771 
24.0109 -0.92955 1.89305 
27.3653 -10.0943 3.7244 
30.2192 -6.00315 4.63215 
30.1805 3.81239 4.48566 
30.1761 3.81345 5.17317 
28.7959 1.26158 5.94951 
30.2212 -5.99397 8.69595 
30.1908 3.82304 10.0333 
32.3633 -9.19894 11.4371 
29.6032 -5.93547 11.3272 
29.7862 3.8072 11.5513 
29.9388 -3.43451 12.3103 
31.4071 -6.12413 16.4284 
31.4196 -6.12678 16.8982 
31.5224 -6.24177 17.2093 
33.7819 7.02472 16.9155 
31.9019 -6.3151 18.6534 
37.2446 -1.25223 26.9215 
25.2164 -2.07226 0.386319 
26.5877 -4.3856 2.60882 
24.7827 -2.0335 2.5873 
24.7957 -2.02887 3.22126 
31.9947 -7.89016 5.99644 
27.9845 -4.567 5.77353 
28.17 -4.47784 6.04957 
32.5861 8.06095 6.00029 
31.9967 -7.88949 6.74185 
28.1974 -4.49141 7.40165 
28.0324 2.36136 7.42676 
32.023 -8.08383 7.96947 
32.5807 7.95161 7.89972 
31.9958 -7.99931 8.5652 
30.0187 2.37581 15.2723 
30.3699 -4.88715 15.7022 
30.961 -5.13796 17.927 
31.196 -5.24557 18.637 
31.596 2.64823 20.067 
33.4047 -2.62457 23.8448 
25.1604 -2.02878 0.600202 
25.1407 -2.01435 1.13204 
26.5926 -4.36105 2.56145 
24.7473 -2.0261 2.6255 
31.5915 -7.81845 10.8242 
31.3462 -7.71964 11.3889 
31.1358 -7.57001 11.6216 
32.5974 -8.02307 15.27 
30.6273 -5.05443 15.9256 
30.2431 -4.88819 15.566 
33.4927 -8.21752 16.4575 
30.7249 -4.99343 16.4516 
34.0028 -8.35841 18.6427 
31.1474 -5.14485 18.6612 
30.355 -0.0542452 19.2005 
31.0971 2.47757 19.1955 
34.0913 -8.27673 19.8354 
34.1526 5.40664 20.527 
33.661 2.63087 22.569 
33.402 -2.70047 23.4556 
33.3295 -2.65322 23.8268 
34.0613 -2.66998 24.794 
30.3942 -6.3978 3.80338 
30.761 -6.45963 5.86977 
29.9454 3.40106 5.84539 
29.9453 3.40214 6.52694 
29.9505 3.40382 7.21128 
29.8815 3.39753 7.94711 
32.336 6.46232 8.15691 
29.9126 3.40054 8.64446 
29.9003 3.40376 9.44886 
32.1412 6.3398 10.3454 
30.0045 -6.31913 11.536 
29.841 -1.2637 14.2501 
30.7216 3.55536 15.1827 
30.0863 1.00463 16.8376 
29.9263 -1.26174 17.7743 
30.3311 -1.56597 19.3172 
30.2341 -1.21013 19.0504 
30.5961 -3.89748 20.0946 
33.7392 -7.12656 20.4531 
36.5891 -1.66259 26.2566 
27.8564 5.41464 0.94376 
30.4092 -6.3948 4.5035 
29.8899 3.40297 7.91017 
29.1581 -1.32392 8.80008 
30.4547 -6.39532 10.1788 
32.2642 6.42076 9.96066 
30.2979 -6.39726 10.8755 
31.9559 6.22813 10.8037 
29.8046 -6.18475 11.5962 
31.7992 6.20392 11.5182 
33.6994 6.605 12.9809 
29.8121 -1.28241 15.948 
31.1713 3.60002 16.3309 
29.8402 -1.28178 17.135 
31.2045 3.59967 17.1428 
30.0413 -1.28843 18.4392 
30.2134 -1.30313 18.9896 
32.3639 3.79783 20.0514 
31.4135 -3.89912 21.4153 
27.8422 5.41051 0.457977 
27.5082 -5.79858 1.63555 
27.6527 5.40572 1.76871 
27.3349 -5.78912 2.14728 
26.3661 0.907502 3.40575 
32.0868 6.2365 3.58688 
32.1052 6.24238 5.06099 
29.9118 3.40787 8.59044 
29.2019 3.32269 11.5711 
31.8151 6.22977 11.5336 
33.2034 -9.84126 13.0399 
33.6168 6.60016 18.0842 
30.3499 -1.44376 19.4025 
33.2881 -1.57557 23.2862 
27.9339 -7.33556 0.957791 
25.4131 -0.238739 1.02446 
27.9455 -4.71628 4.41505 
28.282 -4.60597 5.22185 
30.9669 4.60093 5.19305 
32.0848 -8.16186 6.00461 
28.0362 -4.79981 5.97519 
32.9789 7.64258 12.4529 
28.1895 -4.72806 12.8692 
32.7828 7.60557 13.0095 
30.9294 -5.38555 16.3533 
31.2413 -5.34002 18.6115 
30.2241 -2.60889 18.5664 
31.5973 -5.50214 19.3807 
32.6458 4.72411 19.0628 
32.0797 2.18585 21.2065 
32.4276 -2.99683 22.3774 
36.1791 -0.426892 26.2659 
32.348 -11.0887 3.60269 
27.9611 -4.79934 4.37534 
28.2111 -4.99996 5.02089 
28.1776 -4.75184 5.26043 
32.1163 -8.25459 6.00736 
32.1331 -8.20397 7.36833 
28.1319 -4.80691 12.8966 
32.7007 4.80999 19.0062 
34.0319 5.16325 20.4549 
33.0227 2.32905 22.1774 
25.8557 -3.55626 3.40438 
23.8417 -1.25261 3.20077 
28.7303 -3.8369 3.76022 
30.9824 -6.88509 4.51265 
26.9905 -10.7465 5.00111 
28.6881 -3.99838 6.07478 
28.7979 -3.84242 5.72434 
29.1733 2.99188 7.60937 
32.812 -10.2021 7.96629 
29.849 -4.03187 12.8554 
31.1908 3.19815 12.8076 
31.5188 -6.81891 15.0429 
29.6098 -4.00522 15.7191 
32.1565 -7.07032 16.3763 
32.4769 -7.19657 17.9245 
33.2674 -7.37585 19.3919 
30.2552 -4.01052 19.1793 
31.6061 3.36418 19.2228 
30.5606 -4.23909 19.8119 
32.2436 3.16556 20.5998 
32.3872 -4.49575 21.504 
32.9859 3.27933 21.3895 
35.1186 -1.99557 25.3932 
37.1518 0.933853 26.5311 
29.2058 0.603478 3.83023 
27.6033 7.40548 3.81478 
29.1341 0.602948 4.48818 
27.177 7.37366 4.59589 
32.803 -10.1374 5.29128 
28.991 0.616411 5.9604 
28.9992 0.603512 6.78165 
29.0015 0.604617 7.44122 
28.9514 0.604624 8.09742 
28.9873 0.606417 8.76817 
28.9926 0.60762 9.43923 
28.8396 0.605428 10.0852 
28.6933 0.587735 10.9671 
28.6091 0.602771 11.3924 
31.4924 5.80395 11.6419 
31.8165 -7.12537 14.9692 
32.372 -7.25994 16.6689 
32.7937 -7.26932 18.6189 
31.56 3.30649 19.2023 
31.7953 3.20106 19.8394 
35.0949 -2.00345 25.3801 
25.7839 -2.56148 1.20395 
25.6483 -2.58845 1.81719 
27.0708 -5.19648 2.23083 
27.4205 -9.92707 3.23108 
32.5939 -8.82116 6.037 
30.7362 4.27882 5.8854 
30.7144 4.27914 7.99575 
30.7186 4.23293 8.75153 
33.7136 -8.96983 12.9359 
33.5897 -9.00012 13.9263 
29.7741 -0.557749 13.5296 
29.5879 1.76877 14.9653 
31.3114 -5.9574 16.9998 
31.9493 4.57399 17.2009 
33.3421 -6.19372 21.1804 
31.805 -3.30268 22.0533 
35.2067 -6.41634 23.1205 
37.4653 -0.968431 27.343 
30.6591 4.2817 5.27159 
32.5979 -8.81561 6.80122 
32.5933 7.21191 6.74855 
28.296 -5.226 9.40894 
28.3393 -5.22991 10.0897 
30.4274 4.10337 10.2196 
29.0379 -5.39719 10.9248 
29.5887 1.74694 12.531 
29.7665 -0.604636 12.9746 
29.7852 -0.649277 13.5022 
29.8055 -0.649547 16.5204 
32.2893 4.54664 18.6169 
33.0833 4.62795 19.9789 
32.5247 -5.95389 20.3937 
30.9119 -0.78539 20.5702 
31.3023 -0.794639 21.2258 
35.1927 -6.4674 23.1186 
34.0345 1.94144 23.2076 
36.3833 2.08238 25.006 
37.2933 -0.952894 26.733 
28.9878 0.405654 4.48877 
31.5464 5.41893 4.48043 
31.5754 -7.39643 5.42229 
31.6087 -7.3972 5.9732 
28.0159 2.56652 6.20996 
31.6074 -7.39574 6.70733 
31.5977 -7.39229 7.44283 
31.761 5.4764 7.40169 
32.7978 -10.3585 8.80519 
31.6191 -7.39434 9.30215 
31.4108 -7.34573 10.0782 
31.5183 5.51401 10.6584 
32.9967 -10.5609 11.6483 
33.0808 -10.598 12.7069 
32.8145 -10.2921 13.0228 
32.4046 -7.46161 13.6701 
29.5606 -4.4498 13.5849 
30.5823 3.01182 15.6931 
30.7479 2.86543 16.471 
33.1273 5.7251 16.3884 
30.7728 2.85348 17.0186 
33.9875 -8.09854 19.3057 
31.1012 -4.67346 19.2349 
31.8126 3.06096 20.02 
33.6848 0.374452 23.9911 
27.158 -6.38728 3.23891 
31.5548 5.40977 3.94582 
32.7916 8.41694 5.40723 
31.609 -7.392 8.74079 
31.1962 -7.28784 10.7244 
31.5129 5.47969 10.5815 
28.4052 -4.30524 11.4288 
30.47 2.70592 14.6251 
31.9492 -7.42108 15.2045 
30.6717 2.91435 15.8207 
32.9053 -7.68017 17.4371 
30.6811 -2.18575 20.0495 
31.8212 2.99091 20.1103 
32.2329 0.386559 22.1891 
34.2116 -2.43177 24.873 
24.0086 -0.85206 1.04365 
24.063 -1.00748 3.15582 
29.2004 -3.28031 3.8338 
24.1179 -0.981337 3.80027 
30.2125 -5.98904 4.65452 
30.2731 -5.99377 5.89539 
30.2589 -5.98986 6.59233 
30.247 -5.98639 7.29106 
30.1995 -5.9736 9.40219 
29.9698 3.77369 10.7604 
29.3419 -5.7871 11.6554 
33.893 -9.5626 12.3958 
30.9893 3.836 15.7798 
30.3958 1.22836 18.5988 
31.7077 3.83862 18.6277 
30.4326 -3.80866 19.1743 
30.8894 -3.5604 19.8938 
33.7826 4.28703 21.2219 
33.1648 -0.987091 23.2033 
36.6493 -4.02445 25.5736 
24.0413 -0.878526 1.75903 
27.4036 3.40773 1.67117 
27.4547 -7.79859 3.21372 
30.1953 -5.96894 8.69295 
28.7976 1.26871 9.40876 
32.5911 -9.24265 10.2799 
29.788 3.76406 11.393 
30.0036 -3.42157 14.3639 
31.7875 -6.23328 18.4514 
30.4285 -3.58643 18.658 
30.3426 -3.39831 18.3475 
32.1585 -6.34024 19.2158 
31.0706 -3.60681 20.5647 
31.8225 1.45611 21.9768 
33.1702 -1.06062 23.2079 
36.5979 -4.10984 25.4124 
25.1756 -2.03932 0.511338 
28.2403 -4.44529 5.22734 
28.141 -4.49208 5.9428 
31.985 -8.04248 7.97002 
31.4062 5.0528 8.08863 
32.0131 -7.96649 9.43036 
31.7078 -7.96522 10.7595 
32.7227 8.00114 12.2144 
29.8562 -0.205624 12.85 
28.305 -4.59135 13.3299 
29.8699 -0.219729 13.5156 
32.3404 5.21167 13.5769 
30.3035 -4.87478 15.0431 
30.5467 -5.09064 15.8329 
30.1754 -4.87822 15.4964 
29.7071 -0.198206 15.77 
30.5994 2.47989 15.8777 
29.9034 0.18534 16.6544 
33.2457 -7.99096 16.9785 
32.7481 5.27985 17.763 
33.0018 5.44545 17.9749 
30.2119 -2.5598 18.5594 
33.7288 5.50324 19.3665 
31.9913 -5.17923 20.4363 
31.0769 0.187226 20.65 
32.5525 2.60548 21.4687 
33.7723 2.67903 22.6132 
33.5037 0.193618 23.3847 
34.6648 0.0568888 24.8906 
26.7081 2.14478 3.12307 
28.9813 -2.38054 4.49394 
31.7793 -7.84974 5.24946 
28.1251 -4.49463 5.26151 
31.9791 -7.88698 9.38967 
31.7838 -7.84313 10.1002 
32.2995 5.20448 12.5789 
30.5896 -5.02522 14.4368 
29.8119 -0.0757581 14.2312 
32.5632 -7.99285 15.2581 
30.0494 2.40376 15.2858 
29.8341 -0.162712 16.3823 
33.3995 -8.10862 16.9351 
29.9166 0.101806 17.1543 
32.959 5.38248 18.0678 
30.1338 0.104603 18.4679 
33.8279 2.70311 22.6353 
35.5405 -5.77493 23.4731 
27.5492 -9.17735 3.19484 
31.6367 -7.78976 3.77613 
27.394 2.18925 3.85969 
31.6573 -7.79369 4.51043 
23.8973 -1.90259 4.84076 
27.9831 -4.54266 4.99499 
32.5995 7.97272 8.67012 
31.4814 -7.72636 10.9997 
29.6045 -0.0876704 12.1901 
28.2801 -4.58531 12.7992 
29.8961 -0.0282861 12.7946 
33.2982 5.39929 13.2106 
30.4474 -4.96672 14.7981 
30.2244 2.4626 14.9882 
29.8919 -2.43703 16.3996 
33.4764 -8.16745 16.9134 
30.5968 2.45783 17.0976 
31.5862 -5.14123 19.7897 
34.8162 0.0152118 24.9204 
27.1111 7.60629 0.483733 
30.3743 -6.37183 4.50437 
30.4853 -6.394 5.208 
29.8063 3.40385 5.16307 
28.8582 -3.75505 5.76815 
31.8588 6.09376 10.8765 
33.6287 6.60708 12.5555 
33.4355 -9.46025 13.0845 
33.6163 6.60599 13.3734 
30.2024 -3.82684 16.3847 
30.5229 1.20877 19.1755 
33.5838 -7.02586 20.4051 
32.8091 3.76645 20.7226 
31.2666 1.23536 21.2099 
34.0125 3.90806 21.8019 
36.3074 -4.59125 24.8737 
29.6839 3.40243 10.2838 
32.0728 6.40394 10.7388 
29.9081 -6.22674 11.5008 
33.3564 -9.6282 13.0908 
33.529 6.60202 17.6077 
32.1119 -6.61987 18.4831 
32.5873 -6.80335 19.2537 
30.5895 -1.29053 19.9763 
31.3689 1.1628 21.2639 
36.5519 -1.6654 26.8002 
27.678 -9.56527 5.00062 
31.5919 -8.13903 11.6087 
29.762 -0.236082 12.9938 
32.0926 4.80099 13.0989 
29.7466 -0.180187 15.8203 
33.7595 -8.79273 17.1808 
33.8275 -8.70433 18.6033 
30.0106 1.9078 18.5299 
33.4001 4.98315 19.8563 
32.5066 -5.78818 20.5548 
32.1429 2.20916 21.2413 
32.6641 7.55528 6.00067 
32.1193 -8.23347 6.75797 
32.0898 -8.1734 7.36392 
32.1124 -8.22882 8.64407 
30.6071 4.58191 11.5865 
32.001 4.75795 14.2563 
29.7931 -0.258673 15.8843 
29.5571 2.00247 16.4402 
32.8245 4.93188 18.9912 
33.317 4.9864 19.7373 
32.6256 -3.06005 22.9758 
36.1959 -0.40477 25.4531 
36.1036 -0.398251 26.2246 
27.3925 3.00114 0.57586 
26.0075 0.575259 1.83546 
27.3279 2.98114 1.60688 
27.2151 7.41942 2.57126 
27.5626 7.40846 3.82798 
29.1898 3.00216 7.63309 
32.8152 -10.2001 8.01616 
29.235 3.0097 8.14912 
32.835 -10.2038 8.80431 
29.2678 3.01523 9.50991 
31.9639 5.90545 9.34855 
29.1877 3.00807 10.1793 
28.6943 0.622066 10.935 
31.8077 5.98299 10.8157 
30.3853 -6.72032 11.644 
31.6387 5.97066 11.4869 
31.5137 -6.92813 15.2014 
29.947 0.478355 16.633 
30.27 -3.98699 19.1781 
31.5451 3.28857 19.1969 
30.5128 -4.03183 19.8472 
33.7051 -4.65657 22.6895 
35.392 3.66027 23.5069 
35.643 -2.03722 25.1669 
37.414 0.877896 26.7301 
27.8631 -8.59688 1.86898 
27.1339 2.63608 1.82503 
27.3863 7.34398 1.75314 
27.3829 7.3614 4.32229 
28.8923 0.617041 5.14079 
28.2101 2.90663 6.72681 
28.9992 0.622954 7.44225 
28.6943 -3.97632 7.98281 
28.7407 -3.89499 8.2362 
31.9605 5.90724 8.77208 
31.5798 5.88465 11.4744 
29.7072 0.60943 12.1951 
31.1532 3.21917 12.7996 
33.6299 6.22619 13.5884 
31.7891 -7.11097 14.995 
30.4481 3.08775 15.5248 
29.9665 0.622312 16.6033 
30.4773 -4.11331 19.7268 
32.9843 3.403 21.2752 
27.1976 -5.05584 1.68038 
25.1092 -2.46299 3.2059 
25.613 -0.436694 3.38664 
32.587 -8.7961 6.80101 
30.7286 4.23571 6.59496 
30.3195 4.18069 10.8744 
30.5642 4.40062 10.7513 
28.7863 -5.34082 11.3952 
29.5944 1.78771 13.0154 
29.6026 1.78631 13.8273 
30.6759 -5.68179 15.1531 
31.3061 -5.79328 17.7722 
32.3515 -6.06448 20.0093 
36.7971 -3.79189 25.9239 
27.6364 -9.92195 3.83146 
27.043 8.20447 4.59883 
30.5818 4.22462 5.19392 
30.597 4.23398 10.1103 
30.485 4.30191 10.6873 
28.6065 -5.28057 11.683 
28.1984 -5.20511 12.9618 
29.7619 -0.634995 13.1108 
29.6024 1.73007 13.0572 
33.6553 -9.0237 13.7617 
31.0393 -5.78016 14.4276 
31.7611 4.41662 14.3545 
33.6359 -9.01439 16.3303 
31.1711 -5.79647 16.4562 
33.6562 -9.01857 17.2215 
31.4812 -5.76819 18.5593 
32.4119 -6.03119 20.1453 
33.0148 4.58801 19.9487 
30.9402 1.78272 20.6022 
33.8318 4.68487 20.8035 
31.9079 -0.789012 22.0178 
36.3457 2.14859 24.7857 
23.934 -1.73553 4.60195 
31.5865 -7.37089 5.97302 
28.4099 -4.42295 5.95674 
31.8011 5.50174 5.9449 
32.8578 8.4412 6.01254 
31.5826 -7.36883 6.70635 
31.8123 5.50483 6.67557 
31.5163 -7.35731 7.99406 
31.5994 -7.37566 8.73979 
28.4119 -4.46695 9.40831 
31.8057 5.50435 9.53205 
