ply
format ascii 1.0
comment Created by CloudCompare v2.11.1 (Anoia)
comment Created 2026/6/4 下午3:36
obj_info Generated by CloudCompare!
element vertex 1882
property float x
property float y
property float z
end_header
20.2548 4.82884 16.1429 
20.3417 4.83694 16.1476 
20.2408 4.95115 16.1434 
20.3334 4.92733 16.1544 
20.2322 5.04477 16.1572 
20.3283 5.04747 16.1605 
20.2297 5.15358 16.1419 
20.3147 5.1638 16.1658 
20.1969 5.26412 16.1145 
20.2327 5.26551 16.1449 
20.3074 5.26096 16.1827 
20.1908 5.35949 16.1352 
20.2616 5.34741 16.1509 
20.1832 5.43922 16.153 
20.2851 5.4531 16.1657 
20.1696 5.56959 16.156 
20.2768 5.54339 16.1562 
20.1462 5.65155 16.1647 
20.2734 5.65264 16.1745 
20.1123 5.76047 16.1497 
20.2593 5.75197 16.1468 
20.109 5.83429 16.1362 
20.2464 5.82844 16.1602 
20.0981 5.97657 16.1071 
20.1144 5.94172 16.1526 
20.2137 5.9336 16.145 
20.0947 6.05679 16.1183 
20.1398 6.04566 16.1368 
20.2155 6.04734 16.1524 
20.0878 6.1544 16.1401 
20.1568 6.17388 16.1452 
20.2162 6.15396 16.1532 
20.0844 6.23624 16.1692 
20.1934 6.24641 16.1159 
20.2135 6.27675 16.1687 
20.0613 6.35431 16.1378 
20.1777 6.34337 16.1223 
20.2037 6.36262 16.1906 
20.059 6.44308 16.1583 
20.1568 6.45674 16.1504 
20.0491 6.54007 16.1629 
20.1333 6.55834 16.1311 
20.0349 6.65326 16.1668 
20.1306 6.66116 16.1539 
20.018 6.7397 16.1386 
20.1196 6.74644 16.1582 
19.9919 6.87346 16.1128 
20.0263 6.84745 16.158 
20.1146 6.84655 16.1663 
19.9886 6.96313 16.1445 
20.0725 6.94672 16.1422 
19.9795 7.06591 16.1432 
20.0614 7.05299 16.1477 
19.9764 7.15543 16.1637 
20.0527 7.14221 16.161 
19.9548 7.25304 16.1209 
20.0335 7.2579 16.1542 
19.9547 7.34469 16.1648 
20.0232 7.3632 16.1536 
19.9411 7.44293 16.1459 
20.0221 7.44466 16.1573 
19.9516 7.56919 16.1444 
20.0168 7.55578 16.162 
19.9258 7.66006 16.1464 
20.0085 7.65174 16.1657 
19.8939 7.74497 16.1128 
19.9643 7.74241 16.1396 
20.0087 7.73392 16.1874 
19.8865 7.84802 16.1392 
19.957 7.82477 16.1531 
19.8552 7.9526 16.1467 
19.9834 7.96557 16.1296 
20.0023 7.99801 16.1772 
19.8391 8.04967 16.1432 
19.9849 8.05195 16.1456 
20.0024 8.03254 16.1861 
19.8419 8.13421 16.1496 
19.9527 8.15981 16.1301 
19.8419 8.22845 16.1621 
19.9391 8.24921 16.147 
19.8296 8.34606 16.1558 
19.9276 8.35684 16.153 
19.798 8.48564 16.1142 
19.8356 8.45705 16.16 
19.9166 8.44293 16.1582 
19.792 8.5637 16.1199 
19.881 8.55182 16.131 
19.9083 8.57741 16.1642 
19.7841 8.66877 16.1376 
19.8877 8.64809 16.1266 
19.909 8.62629 16.1719 
19.782 8.74763 16.1576 
19.8742 8.75255 16.1369 
19.9016 8.72066 16.1792 
19.771 8.8488 16.1514 
19.862 8.84504 16.1584 
19.7525 8.95285 16.1441 
19.8401 8.94508 16.1451 
19.7422 9.06646 16.1549 
19.8386 9.06463 16.1653 
19.7319 9.14139 16.155 
19.8241 9.14324 16.1498 
19.7181 9.25212 16.1701 
19.8296 9.2527 16.1595 
19.6973 9.34422 16.1094 
19.7419 9.3567 16.1443 
19.8117 9.32506 16.1426 
19.6942 9.45301 16.1478 
19.7567 9.43336 16.1507 
19.8098 9.44797 16.1916 
19.6854 9.54109 16.1519 
19.7876 9.54222 16.1659 
19.8037 9.55079 16.1968 
19.6764 9.65981 16.1433 
19.7669 9.64464 16.1366 
19.8017 9.64133 16.1877 
19.6684 9.75435 16.1528 
19.7663 9.76663 16.1535 
19.6525 9.8544 16.1397 
19.7491 9.85205 16.1489 
19.6387 9.96476 16.147 
19.7256 9.93559 16.1327 
19.6459 10.0596 16.1615 
19.7301 10.0518 16.1577 
19.5975 10.1715 16.1087 
19.6154 10.1529 16.1521 
19.7221 10.1596 16.1479 
19.59 10.2549 16.1538 
19.6037 10.216 16.168 
19.7374 10.2445 16.1596 
19.5673 10.363 16.1475 
19.6995 10.3696 16.1031 
19.7187 10.3396 16.1558 
19.5541 10.4447 16.1547 
19.6971 10.462 16.1049 
19.7076 10.4407 16.146 
19.5451 10.5407 16.1492 
19.6827 10.5661 16.1146 
19.7144 10.5358 16.1673 
19.5713 10.6518 16.1559 
19.6756 10.6522 16.1409 
19.7096 10.6482 16.1788 
19.5948 10.7697 16.1935 
19.6463 10.7508 16.1669 
19.7041 10.7563 16.1848 
19.6473 10.8215 16.1878 
19.6425 10.92 16.1981 
19.6432 11.0382 16.1949 
19.3434 11.4686 16.1617 
19.4543 11.4375 16.1467 
19.5369 11.44 16.1642 
19.2948 11.5308 16.1149 
19.308 11.5413 16.1656 
19.5606 11.5601 16.1508 
19.6031 11.5376 16.1927 
19.3457 11.6489 16.1462 
19.5617 11.6418 16.1424 
19.6119 11.6574 16.1863 
19.4246 11.7487 16.1475 
19.5482 11.7467 16.1437 
19.6093 11.7425 16.1892 
19.4416 11.8364 16.157 
19.5543 11.8344 16.1676 
19.4535 11.9583 16.1724 
19.5486 11.933 16.1761 
19.4575 12.0468 16.1816 
19.5363 12.0693 16.1842 
19.4534 12.1516 16.1779 
19.5415 12.1414 16.1857 
19.3951 12.2673 16.1932 
19.442 12.2422 16.1776 
19.5447 12.2424 16.1846 
19.3883 12.362 16.1932 
19.4335 12.3614 16.1791 
19.5211 12.355 16.1824 
19.3895 12.4334 16.1914 
19.4392 12.4511 16.1825 
19.5281 12.45 16.1954 
19.372 12.5826 16.19 
19.4508 12.544 16.1849 
19.5018 12.5071 16.1939 
19.2819 12.6813 16.1305 
19.3587 12.6392 16.1498 
19.442 12.6483 16.1713 
19.249 12.7414 16.1492 
19.3897 12.7022 16.109 
19.4347 12.7435 16.1468 
19.503 12.7198 16.1964 
19.2481 12.8433 16.1409 
19.4461 12.8474 16.1385 
19.5166 12.8621 16.1875 
19.2591 12.9382 16.1432 
19.438 12.9255 16.1216 
19.5217 12.9707 16.1783 
19.2556 13.0499 16.141 
19.4533 13.0512 16.1414 
19.5285 13.048 16.1859 
19.2529 13.1441 16.1417 
19.3654 13.1719 16.115 
19.463 13.1401 16.1617 
19.5139 13.1226 16.1855 
19.2612 13.2504 16.159 
19.3582 13.2463 16.1304 
19.4436 13.25 16.1617 
19.5264 13.2224 16.196 
19.2691 13.3311 16.15 
19.3571 13.3358 16.1446 
19.4691 13.3409 16.1825 
19.2399 13.4439 16.1615 
19.3459 13.4482 16.146 
19.4272 13.4482 16.1687 
19.235 13.546 16.1568 
19.3532 13.5541 16.1544 
19.4266 13.5471 16.1782 
19.1875 13.6536 16.183 
19.2403 13.6484 16.1436 
19.3615 13.6438 16.1678 
19.4082 13.6608 16.1827 
19.1545 13.7517 16.1831 
19.2503 13.7391 16.1442 
19.3489 13.749 16.1737 
19.41 13.7112 16.1961 
19.0447 13.871 16.1713 
19.1437 13.8238 16.1415 
19.2445 13.8293 16.1356 
19.3364 13.8461 16.1833 
18.9682 13.9527 16.1656 
19.008 13.9069 16.1248 
19.2566 13.9527 16.1404 
19.3056 13.9346 16.1876 
18.9568 14.0526 16.1432 
19.2535 14.0441 16.1423 
19.0528 14.139 16.1507 
19.1379 14.1648 16.1533 
19.2301 14.1433 16.1629 
22.8373 -14.9104 16.264 
22.7946 -14.8306 16.2811 
22.8458 -14.8569 16.2328 
22.832 -14.7526 16.2392 
22.7154 -13.705 16.2811 
22.6806 -13.6383 16.2685 
22.7618 -13.6592 16.2481 
22.818 -13.6384 16.2205 
22.6869 -13.5651 16.2514 
22.7491 -13.5368 16.2436 
22.8158 -13.5814 16.2124 
22.6822 -12.6177 16.2233 
22.7111 -12.6144 16.2271 
22.5965 -12.5116 16.2436 
22.6431 -12.5608 16.2537 
22.7462 -12.5378 16.2503 
22.5671 -12.4499 16.2586 
22.6832 -12.4115 16.2887 
22.7305 -12.4501 16.2459 
22.569 -12.3432 16.2616 
22.6581 -12.3513 16.2532 
22.7205 -12.3945 16.2091 
22.5928 -12.2864 16.2551 
22.6161 -12.2775 16.2268 
22.6245 -12.1937 16.2001 
22.5768 -11.8147 16.2015 
22.5785 -11.743 16.2062 
22.6154 -11.7351 16.2062 
22.5575 -11.6588 16.2156 
22.634 -11.67 16.2134 
22.4738 -11.5271 16.2298 
22.5423 -11.5386 16.2435 
22.6246 -11.5585 16.2196 
22.445 -11.4455 16.2457 
22.5708 -11.4597 16.268 
22.6235 -11.4388 16.2361 
22.3899 -11.3193 16.2813 
22.4142 -11.3629 16.2489 
22.5754 -11.3375 16.2915 
22.6251 -11.3532 16.2298 
22.3715 -11.2378 16.2588 
22.5817 -11.2615 16.2609 
22.6117 -11.273 16.2198 
22.3669 -11.1452 16.2555 
22.5614 -11.1486 16.2407 
22.3757 -11.0488 16.2504 
22.4974 -11.0286 16.2838 
22.5193 -11.0552 16.2611 
22.3675 -10.9422 16.2484 
22.4917 -10.9624 16.2856 
22.5143 -10.9535 16.2375 
22.3639 -10.8764 16.2434 
22.4878 -10.8454 16.2849 
22.5152 -10.8805 16.2311 
22.3459 -10.7425 16.2557 
22.4838 -10.7501 16.282 
22.5162 -10.7497 16.2253 
22.3456 -10.6474 16.2348 
22.4849 -10.6479 16.2741 
22.5123 -10.6721 16.2307 
22.3325 -10.5718 16.2599 
22.4839 -10.5439 16.258 
22.5103 -10.557 16.2208 
22.3246 -10.4583 16.2395 
22.4714 -10.4361 16.265 
22.5114 -10.4402 16.2106 
22.2984 -10.3384 16.2943 
22.3111 -10.3483 16.2474 
22.4778 -10.3581 16.2592 
22.5175 -10.397 16.2055 
22.2926 -10.2569 16.2668 
22.3016 -10.2455 16.2208 
22.4651 -10.26 16.2711 
22.5028 -10.2376 16.2129 
22.2834 -10.1494 16.254 
22.4631 -10.148 16.2629 
22.504 -10.1658 16.2049 
22.2723 -10.0462 16.2471 
22.4528 -10.0463 16.2657 
22.2642 -9.94508 16.2399 
22.4559 -9.95211 16.2539 
22.2495 -9.84427 16.2618 
22.4516 -9.85851 16.2482 
22.2358 -9.75638 16.2733 
22.4452 -9.76022 16.2437 
22.228 -9.65649 16.2586 
22.4265 -9.64426 16.2604 
22.2205 -9.55661 16.2555 
22.4384 -9.54825 16.2333 
22.1954 -9.42941 16.2917 
22.2118 -9.45356 16.2351 
22.3982 -9.48883 16.2897 
22.4205 -9.44857 16.2497 
22.1936 -9.35791 16.2644 
22.2044 -9.3415 16.2141 
22.3881 -9.37302 16.288 
22.416 -9.35141 16.2385 
22.1875 -9.25202 16.2397 
22.3754 -9.24423 16.2564 
22.4157 -9.28363 16.2165 
22.1779 -9.16334 16.2444 
22.3658 -9.14542 16.2737 
22.4129 -9.14668 16.2118 
22.16 -9.05295 16.2526 
22.3752 -9.06683 16.2551 
22.4115 -9.06226 16.2084 
22.1292 -8.93844 16.246 
22.3777 -8.93754 16.2462 
22.1191 -8.82872 16.2562 
22.3534 -8.85892 16.247 
22.122 -8.75715 16.2586 
22.2951 -8.74289 16.2883 
22.3276 -8.74884 16.2466 
22.1174 -8.64815 16.2664 
22.2917 -8.66632 16.2804 
22.3408 -8.63962 16.2325 
22.0971 -8.50522 16.2514 
22.1075 -8.5693 16.2514 
22.3298 -8.5477 16.2543 
22.0947 -8.44596 16.2587 
22.339 -8.45007 16.2472 
22.0829 -8.35651 16.238 
22.2989 -8.30238 16.2849 
22.3292 -8.35453 16.25 
22.0626 -8.24688 16.2519 
22.2856 -8.24864 16.293 
22.3207 -8.25559 16.2411 
22.0484 -8.14634 16.2518 
22.2909 -8.16339 16.2773 
22.316 -8.16636 16.2279 
22.037 -8.04146 16.2462 
22.2843 -8.04851 16.2693 
22.3078 -8.06011 16.2266 
22.0253 -7.95039 16.2553 
22.2762 -7.94536 16.2657 
22.3011 -7.9592 16.2194 
22.0113 -7.84312 16.2473 
22.2734 -7.86757 16.2579 
21.9954 -7.72352 16.2427 
22.0032 -7.77537 16.2696 
22.2679 -7.7487 16.2463 
21.9856 -7.64968 16.2612 
22.2565 -7.65985 16.2561 
21.9724 -7.55107 16.2474 
22.2773 -7.56411 16.2571 
22.3232 -7.52076 16.2447 
21.9593 -7.45526 16.2462 
22.3751 -7.4738 16.2508 
22.4284 -7.42319 16.2431 
21.944 -7.33594 16.2438 
22.4743 -7.36889 16.2479 
22.5117 -7.32049 16.244 
21.9312 -7.25134 16.2285 
22.5543 -7.25817 16.2691 
21.9185 -7.15048 16.2365 
22.5927 -7.18775 16.2496 
22.6097 -7.1463 16.2529 
21.9063 -7.05162 16.2598 
22.6338 -7.06313 16.2494 
21.8893 -6.95735 16.2406 
22.6437 -6.9449 16.2524 
21.8742 -6.85942 16.2336 
22.6486 -6.84514 16.257 
21.867 -6.74904 16.2518 
22.6401 -6.75733 16.2516 
21.8548 -6.65829 16.2529 
22.6206 -6.65541 16.2482 
21.8399 -6.55403 16.2331 
22.5954 -6.52058 16.2554 
22.6039 -6.56915 16.2428 
21.8236 -6.44339 16.2464 
22.5865 -6.44413 16.2432 
21.8108 -6.36455 16.2403 
22.5756 -6.34814 16.2397 
21.7951 -6.24815 16.2451 
21.8011 -6.28404 16.2933 
22.5638 -6.24564 16.254 
21.7829 -6.15463 16.2565 
22.5513 -6.14943 16.2616 
21.7688 -6.0468 16.2451 
22.5377 -6.06203 16.2481 
21.755 -5.93232 16.2339 
22.5196 -5.92652 16.2459 
21.7442 -5.85269 16.2638 
22.5093 -5.84596 16.2525 
21.7319 -5.77048 16.2408 
22.4943 -5.74179 16.2288 
22.5018 -5.78696 16.2662 
21.7174 -5.65787 16.2509 
22.4813 -5.64121 16.2615 
21.6986 -5.51357 16.2472 
21.7052 -5.55776 16.2465 
22.4679 -5.54913 16.2596 
21.6905 -5.45695 16.2509 
22.4521 -5.44162 16.2549 
21.674 -5.34398 16.2361 
22.4388 -5.34042 16.2526 
21.6598 -5.24929 16.2616 
22.4288 -5.26143 16.2532 
21.6498 -5.15361 16.256 
22.4167 -5.16669 16.2386 
21.6414 -5.06561 16.2413 
22.397 -5.02587 16.2256 
22.4037 -5.06711 16.2405 
21.6237 -4.93281 16.2606 
22.3883 -4.95458 16.2354 
21.612 -4.85294 16.2394 
22.3777 -4.86812 16.2556 
21.5958 -4.74121 16.2667 
21.6018 -4.77762 16.2391 
22.3619 -4.75135 16.2392 
21.5833 -4.64122 16.2673 
22.345 -4.6356 16.2533 
21.574 -4.55098 16.2423 
22.3332 -4.54921 16.2601 
21.5707 -4.45312 16.2292 
22.3159 -4.43992 16.2465 
21.5487 -4.34257 16.2438 
22.298 -4.31674 16.2391 
22.308 -4.35207 16.2688 
21.5319 -4.25653 16.2661 
22.2915 -4.23767 16.2468 
22.3027 -4.25995 16.2745 
21.5382 -4.14876 16.2406 
22.2791 -4.14244 16.2498 
21.5359 -4.07437 16.2344 
22.2664 -4.05613 16.2569 
21.4933 -3.9545 16.2697 
21.5468 -3.9536 16.2165 
22.2538 -3.93788 16.2587 
21.4809 -3.85565 16.2732 
21.5312 -3.84132 16.2224 
22.2391 -3.84396 16.249 
21.4685 -3.74658 16.2587 
21.5429 -3.74726 16.2168 
21.8958 -3.702 16.2042 
21.9307 -3.72286 16.2034 
22.2257 -3.76596 16.2439 
21.4651 -3.63765 16.2584 
21.5306 -3.6336 16.2219 
21.8769 -3.63994 16.2059 
21.9521 -3.64528 16.2074 
22.1842 -3.64808 16.2027 
22.2165 -3.66048 16.2647 
21.4591 -3.56112 16.2605 
21.5392 -3.58324 16.2115 
21.864 -3.54287 16.2151 
21.9456 -3.53493 16.2139 
22.1868 -3.53383 16.2195 
22.2076 -3.56118 16.2645 
24.1987 -3.51134 16.2314 
24.2553 -3.5346 16.2457 
24.3432 -3.53925 16.2515 
24.452 -3.57015 16.2462 
24.5401 -3.55682 16.2512 
24.658 -3.51376 16.2523 
24.7469 -3.50905 16.2429 
24.8407 -3.53901 16.2509 
24.964 -3.52843 16.257 
25.0143 -3.50786 16.2338 
25.2648 -3.5156 16.2522 
25.3357 -3.51415 16.2483 
21.4579 -3.45575 16.2542 
21.5036 -3.46132 16.2365 
21.7757 -3.43387 16.2082 
21.8398 -3.45629 16.2205 
21.9499 -3.43868 16.2129 
22.1734 -3.44642 16.2253 
22.2005 -3.4662 16.2677 
24.1426 -3.43974 16.2592 
25.0535 -3.4907 16.261 
25.13 -3.48392 16.2559 
25.2109 -3.49312 16.2515 
25.3798 -3.49383 16.277 
25.4338 -3.4719 16.2548 
25.5483 -3.44734 16.2541 
25.6426 -3.46047 16.2628 
25.7483 -3.46415 16.246 
25.8548 -3.42231 16.2611 
25.9307 -3.40323 16.2365 
26.0689 -3.40727 16.247 
26.1565 -3.41538 16.2581 
21.4582 -3.34878 16.2488 
21.5099 -3.3589 16.216 
21.7853 -3.35838 16.2073 
21.8421 -3.35058 16.2211 
21.9714 -3.35588 16.2058 
22.1635 -3.34696 16.2459 
24.07 -3.34037 16.2671 
24.1065 -3.38992 16.2483 
25.9706 -3.39501 16.2704 
26.0371 -3.39491 16.2798 
26.1956 -3.39721 16.2888 
26.2548 -3.38374 16.2535 
26.3374 -3.36531 16.2728 
26.444 -3.37226 16.2426 
26.5554 -3.38999 16.2553 
26.6478 -3.36436 16.2491 
26.7511 -3.32812 16.2528 
26.833 -3.31802 16.2668 
26.9414 -3.35521 16.2501 
27.0714 -3.31529 16.2316 
27.2795 -3.30797 16.244 
27.3353 -3.31074 16.2437 
21.3975 -3.22184 16.2675 
21.4554 -3.23397 16.2443 
21.5048 -3.25992 16.21 
21.7854 -3.27396 16.2098 
21.8582 -3.26285 16.2232 
21.955 -3.24373 16.215 
22.0269 -3.23425 16.2029 
22.1508 -3.24643 16.2458 
23.9409 -3.23163 16.2552 
24.0131 -3.27636 16.2656 
27.084 -3.29914 16.2939 
27.156 -3.28891 16.2495 
27.2248 -3.29432 16.2468 
27.3915 -3.29401 16.2922 
27.4456 -3.27805 16.2563 
27.5538 -3.24561 16.2474 
27.6586 -3.2516 16.2466 
27.7399 -3.26828 16.2559 
27.8567 -3.24682 16.2503 
27.9587 -3.21846 16.2488 
28.0567 -3.21939 16.2387 
28.1558 -3.23784 16.2374 
28.2399 -3.2146 16.2386 
21.3848 -3.14648 16.2856 
21.4369 -3.14724 16.2509 
21.8603 -3.15029 16.2135 
21.9451 -3.14862 16.2194 
22.0455 -3.1549 16.2149 
22.1349 -3.14611 16.2531 
23.8716 -3.15593 16.2552 
28.2829 -3.19323 16.2657 
28.3562 -3.17547 16.2584 
28.4523 -3.16048 16.2489 
28.5468 -3.13194 16.2383 
21.3952 -3.05679 16.2711 
21.4463 -3.04074 16.2417 
21.8698 -3.06027 16.2115 
21.9561 -3.05506 16.2286 
22.0529 -3.04921 16.2257 
22.1303 -3.06827 16.262 
23.8301 -3.03798 16.2465 
28.5948 -3.08989 16.2233 
28.6345 -3.03654 16.2477 
21.3811 -2.94564 16.2808 
21.4307 -2.95156 16.2592 
21.8766 -2.95073 16.2271 
21.9582 -2.94395 16.2366 
22.0447 -2.93866 16.2325 
22.1145 -2.94893 16.2657 
23.7665 -2.95052 16.2421 
23.8095 -2.99627 16.2837 
28.6848 -2.98193 16.2626 
28.7341 -2.93278 16.2556 
21.3612 -2.84631 16.2881 
21.4454 -2.84453 16.234 
21.7654 -2.81849 16.2193 
21.8619 -2.84644 16.2449 
21.9683 -2.83931 16.2363 
22.0586 -2.85306 16.244 
22.1095 -2.86369 16.2893 
23.6442 -2.85162 16.2557 
28.7666 -2.89595 16.2681 
28.8225 -2.83535 16.2462 
21.3709 -2.74807 16.2861 
21.4356 -2.75067 16.2338 
21.7519 -2.74168 16.2416 
21.8631 -2.7537 16.251 
21.9398 -2.76315 16.2388 
22.0674 -2.74315 16.258 
23.5936 -2.74606 16.2678 
28.8757 -2.77342 16.2583 
28.9365 -2.71827 16.2238 
21.3678 -2.64483 16.2905 
21.4215 -2.65678 16.2424 
21.6849 -2.65354 16.2569 
21.7376 -2.64353 16.2317 
21.8475 -2.63213 16.2523 
21.9544 -2.66389 16.2399 
22.0614 -2.66163 16.264 
23.5568 -2.65752 16.2374 
28.9809 -2.67368 16.2414 
29.0337 -2.61958 16.245 
21.3742 -2.53963 16.2865 
21.4108 -2.54527 16.2383 
21.6772 -2.5468 16.2536 
21.739 -2.55204 16.2491 
21.8305 -2.56624 16.2608 
21.9449 -2.54294 16.2513 
22.0407 -2.54753 16.2689 
23.3871 -2.50516 16.2525 
23.468 -2.56084 16.2528 
23.5071 -2.59366 16.2503 
29.0781 -2.57457 16.2558 
29.1224 -2.53253 16.2519 
21.3758 -2.43533 16.2776 
21.4048 -2.47055 16.2308 
21.6675 -2.44531 16.2472 
21.7529 -2.43486 16.2637 
21.8437 -2.44035 16.2675 
21.9485 -2.45653 16.2553 
22.0389 -2.45225 16.2818 
23.3534 -2.4557 16.2388 
29.1848 -2.47389 16.2459 
29.2453 -2.418 16.2435 
21.3772 -2.36336 16.2617 
21.6876 -2.38302 16.2483 
21.7274 -2.34094 16.2531 
21.8422 -2.35472 16.2683 
21.9584 -2.33876 16.2615 
22.0348 -2.36548 16.2867 
23.2934 -2.31311 16.2281 
23.3184 -2.35189 16.2614 
29.2771 -2.38565 16.2396 
29.3167 -2.34438 16.2336 
21.3706 -2.25677 16.2542 
21.6851 -2.22299 16.2465 
21.738 -2.24825 16.2569 
21.832 -2.24204 16.2758 
21.9546 -2.25268 16.2679 
22.0167 -2.26653 16.2853 
23.1811 -2.21617 16.2571 
23.2455 -2.26122 16.2539 
29.384 -2.27897 16.2523 
29.4363 -2.22588 16.2608 
21.3493 -2.1405 16.2457 
21.6556 -2.13837 16.2526 
21.7389 -2.15809 16.278 
21.841 -2.16823 16.2715 
21.9491 -2.1423 16.2694 
22.0026 -2.12375 16.2967 
23.1264 -2.15098 16.2461 
29.4743 -2.18778 16.2574 
29.5275 -2.13694 16.2413 
21.3268 -2.04963 16.2482 
21.5748 -2.01919 16.2705 
21.638 -2.04632 16.2663 
21.73 -2.05502 16.2802 
21.8541 -2.04943 16.2697 
21.9429 -2.02522 16.2799 
23.0813 -2.04616 16.2439 
29.5858 -2.07513 16.2633 
29.6308 -2.03416 16.2432 
21.2949 -1.98451 16.2998 
21.317 -1.94442 16.2576 
21.5706 -1.95128 16.2616 
21.6323 -1.95516 16.2727 
21.7431 -1.95553 16.2857 
21.8421 -1.96109 16.2808 
21.9447 -1.95912 16.2882 
22.9929 -1.9117 16.2699 
23.0281 -1.95502 16.2644 
29.6887 -1.97253 16.2765 
29.735 -1.93027 16.2483 
21.3251 -1.86388 16.2468 
21.5386 -1.85101 16.2545 
21.6641 -1.88844 16.2961 
21.7485 -1.84858 16.294 
21.8526 -1.86614 16.2916 
21.9335 -1.86425 16.2945 
22.8963 -1.82711 16.2878 
22.9285 -1.86662 16.2441 
29.7887 -1.87918 16.2506 
29.842 -1.82406 16.2501 
21.2973 -1.77718 16.2993 
21.3372 -1.74921 16.2335 
21.4623 -1.73207 16.2512 
21.5057 -1.78189 16.2622 
21.7662 -1.76549 16.2992 
21.8455 -1.73065 16.297 
21.9149 -1.76176 16.2965 
22.8821 -1.76553 16.2458 
29.8766 -1.78249 16.2655 
29.9282 -1.73324 16.2487 
21.3513 -1.66484 16.2739 
21.4236 -1.6846 16.2806 
21.5428 -1.62072 16.2942 
21.6514 -1.63194 16.2929 
21.7469 -1.64532 16.2881 
21.8608 -1.66932 16.2961 
22.8807 -1.65246 16.2489 
29.9848 -1.67487 16.2558 
30.0364 -1.62263 16.2499 
21.4657 -1.54513 16.2697 
21.5684 -1.55967 16.2612 
21.6452 -1.55292 16.2664 
21.7524 -1.55666 16.2706 
21.8399 -1.54119 16.2786 
22.8906 -1.542 16.2647 
30.0765 -1.57828 16.2633 
30.1401 -1.51859 16.2571 
21.4519 -1.44428 16.2416 
21.5487 -1.46953 16.2195 
21.6508 -1.43762 16.211 
21.7194 -1.48081 16.2309 
21.8457 -1.4639 16.2295 
21.9165 -1.4139 16.2546 
22.8584 -1.45238 16.258 
30.1683 -1.48633 16.2874 
30.2311 -1.42829 16.2668 
21.4 -1.36121 16.2978 
21.4269 -1.35848 16.2531 
21.5822 -1.34043 16.2079 
21.6429 -1.35422 16.212 
21.7367 -1.34687 16.2051 
21.8761 -1.32925 16.2098 
21.9141 -1.34314 16.2763 
22.7884 -1.34429 16.2542 
22.8106 -1.38925 16.2557 
30.2765 -1.38656 16.2489 
30.336 -1.33351 16.2317 
21.3928 -1.21869 16.2596 
21.4455 -1.24731 16.2229 
21.5515 -1.25444 16.209 
21.6359 -1.23789 16.2123 
21.7197 -1.27073 16.2057 
21.8563 -1.25098 16.2248 
22.7683 -1.24845 16.2604 
22.9633 -1.21186 16.2645 
23.0269 -1.20828 16.2534 
30.3825 -1.23324 16.2524 
21.383 -1.14059 16.2589 
21.428 -1.15823 16.2213 
21.5511 -1.16369 16.2086 
21.624 -1.15067 16.2081 
21.7635 -1.11782 16.2093 
21.8491 -1.15315 16.2615 
22.7452 -1.15308 16.2409 
22.9312 -1.15835 16.2676 
23.0859 -1.14425 16.2486 
23.102 -1.12438 16.2163 
30.3872 -1.16163 16.2581 
21.3733 -1.03263 16.2668 
21.4521 -1.04685 16.2214 
21.5721 -1.03543 16.2149 
21.6475 -1.04494 16.2101 
21.755 -1.05773 16.2196 
21.8152 -1.05444 16.2604 
22.723 -1.05115 16.2518 
22.9306 -1.04877 16.268 
23.0839 -1.04219 16.2478 
30.3931 -1.03161 16.2583 
20.0768 -0.933956 16.278 
20.1402 -0.940467 16.2602 
20.2575 -0.933979 16.2574 
20.3412 -0.936866 16.2587 
20.4399 -0.928069 16.2485 
20.5459 -0.930059 16.273 
20.6624 -0.925548 16.2815 
20.7305 -0.915122 16.2717 
20.8506 -0.909002 16.2789 
20.9427 -0.908296 16.2862 
21.0257 -0.904138 16.2858 
21.1413 -0.903012 16.2893 
21.2565 -0.921301 16.2838 
21.3525 -0.95626 16.2567 
21.452 -0.951888 16.2118 
21.5379 -0.953012 16.2101 
21.6301 -0.956353 16.2143 
21.7522 -0.951424 16.2295 
21.8157 -0.940323 16.2689 
22.767 -0.943539 16.2446 
22.8529 -0.931381 16.2332 
22.921 -0.972352 16.2701 
23.0755 -0.947073 16.2568 
30.3593 -0.9412 16.2515 
20.0405 -0.8327 16.252 
20.1551 -0.888704 16.2115 
20.2428 -0.88258 16.2125 
20.3639 -0.878954 16.2046 
20.4478 -0.883408 16.2071 
20.5538 -0.869635 16.2117 
20.6381 -0.875572 16.2223 
20.7443 -0.872352 16.223 
20.8502 -0.86943 16.2296 
20.952 -0.870698 16.234 
21.0361 -0.86684 16.2345 
21.1647 -0.852452 16.2221 
21.2412 -0.87263 16.2239 
21.3046 -0.868937 16.2025 
21.5944 -0.899668 16.2039 
21.696 -0.885511 16.2125 
21.7457 -0.857975 16.2146 
21.8589 -0.846048 16.2536 
21.9316 -0.817545 16.2774 
22.0498 -0.800483 16.2897 
22.8232 -0.885931 16.2925 
23.0515 -0.830767 16.2408 
30.3257 -0.841883 16.2618 
19.9947 -0.708573 16.2687 
20.0219 -0.74186 16.2257 
21.7999 -0.795978 16.2005 
21.9575 -0.777518 16.2239 
22.0523 -0.769553 16.2311 
22.1538 -0.771468 16.2475 
22.2587 -0.766724 16.2535 
22.3345 -0.766199 16.2639 
22.4461 -0.748794 16.2547 
22.5348 -0.736485 16.2432 
22.6451 -0.735901 16.2519 
22.729 -0.733884 16.244 
22.8319 -0.734855 16.2605 
22.9413 -0.737037 16.2572 
23.0202 -0.770398 16.2543 
30.3376 -0.751227 16.2636 
19.9929 -0.649283 16.2649 
20.0065 -0.637848 16.2245 
30.346 -0.640549 16.2407 
19.9833 -0.560163 16.2615 
20.0041 -0.560788 16.2108 
30.294 -0.507942 16.2345 
30.3225 -0.563323 16.2529 
19.9797 -0.448882 16.2573 
20.009 -0.465066 16.2023 
30.279 -0.4382 16.2511 
19.9874 -0.348347 16.2909 
20.0387 -0.343939 16.2354 
20.1316 -0.316282 16.2158 
30.2884 -0.369438 16.2563 
30.3031 -0.328095 16.2456 
20.0439 -0.269452 16.2803 
20.1485 -0.247397 16.2656 
20.2487 -0.234797 16.2577 
20.3202 -0.217224 16.2518 
20.423 -0.225046 16.2286 
20.5688 -0.205875 16.2321 
20.6114 -0.218675 16.2101 
30.2899 -0.23099 16.2917 
30.303 -0.263225 16.2436 
20.2788 -0.186545 16.2925 
20.3522 -0.176978 16.2806 
20.4564 -0.180692 16.2683 
20.5558 -0.177878 16.2659 
20.6708 -0.15439 16.2692 
20.744 -0.155397 16.2483 
20.8399 -0.136442 16.2432 
20.9465 -0.132749 16.2276 
21.039 -0.124124 16.2224 
21.1266 -0.11238 16.2089 
30.2685 -0.157489 16.2405 
20.8231 -0.0964278 16.298 
20.9672 -0.0818352 16.2864 
21.0524 -0.0731488 16.2715 
21.1382 -0.0564934 16.259 
21.2349 -0.0536638 16.2296 
21.3395 -0.0500024 16.2196 
21.4419 -0.0447163 16.2189 
21.5683 -0.0311425 16.2145 
21.6241 -0.0252503 16.2087 
21.7142 -0.00179847 16.2021 
30.2404 -0.057082 16.2538 
21.1968 0.0152776 16.299 
21.2744 0.0279642 16.2749 
21.3625 0.0535783 16.2561 
21.4488 0.0455029 16.2388 
21.5534 0.0439688 16.2307 
21.658 0.0573 16.2268 
21.754 0.0505788 16.2271 
21.8462 0.0380405 16.2232 
21.9529 0.0624996 16.2323 
22.0649 0.0703882 16.2134 
22.1269 0.0830224 16.2067 
30.2533 0.0607485 16.2399 
21.2885 0.167558 16.296 
21.3407 0.138638 16.2744 
21.4404 0.145455 16.2534 
21.5454 0.169416 16.2445 
21.6478 0.139316 16.2413 
21.7538 0.144072 16.2644 
21.8367 0.144556 16.2893 
21.9515 0.120813 16.2712 
22.0447 0.132893 16.2637 
22.1636 0.136312 16.2459 
22.2557 0.154846 16.254 
22.3647 0.162156 16.2467 
22.4518 0.161322 16.233 
22.5528 0.166135 16.2239 
22.6311 0.1812 16.22 
22.7258 0.194722 16.2092 
30.2568 0.159069 16.2585 
21.2736 0.276741 16.2939 
21.3347 0.257375 16.2759 
21.4203 0.233723 16.2598 
21.5442 0.261655 16.2531 
21.6615 0.23567 16.2572 
21.7297 0.215677 16.2821 
22.4644 0.209243 16.2954 
22.5526 0.221115 16.2825 
22.6231 0.231294 16.2694 
22.7599 0.253537 16.2474 
22.8449 0.276055 16.225 
30.1971 0.283208 16.2854 
30.2188 0.251997 16.2476 
21.2747 0.354302 16.2847 
21.351 0.346286 16.2698 
21.4549 0.32662 16.2585 
21.5524 0.344572 16.2574 
21.6385 0.353587 16.2679 
22.8536 0.325168 16.2752 
22.9009 0.313658 16.2097 
30.1848 0.355131 16.2612 
21.199 0.429915 16.2969 
21.2389 0.446162 16.2838 
21.3492 0.456097 16.2676 
21.4528 0.444977 16.2616 
21.5515 0.449581 16.2597 
21.6489 0.44787 16.2723 
22.9301 0.448518 16.2424 
30.1919 0.45803 16.2556 
30.2096 0.493492 16.2124 
21.2524 0.532296 16.2831 
21.3426 0.536501 16.2653 
21.4486 0.558939 16.2647 
21.54 0.556681 16.2619 
21.6472 0.55429 16.2748 
22.5887 0.566411 16.2636 
22.629 0.574986 16.2362 
22.9232 0.548747 16.2482 
30.1979 0.57387 16.2692 
30.2072 0.541121 16.2496 
21.2582 0.611841 16.29 
21.3599 0.650802 16.2859 
21.4514 0.637072 16.2786 
21.54 0.651888 16.2774 
21.6412 0.638096 16.2853 
22.5596 0.654285 16.2579 
22.6748 0.629441 16.2438 
22.7226 0.68807 16.2135 
22.8689 0.661507 16.224 
22.9047 0.640054 16.2616 
30.1741 0.641952 16.2479 
21.6242 0.71256 16.2979 
22.5521 0.754606 16.261 
22.7466 0.715663 16.2661 
22.8176 0.713156 16.2648 
30.1376 0.742136 16.2549 
22.5574 0.847951 16.2541 
30.1477 0.858157 16.2582 
20.7947 0.987837 16.229 
20.8437 0.959411 16.2555 
22.5814 0.942431 16.2277 
30.1543 0.953826 16.2376 
20.7694 1.05711 16.2573 
20.8884 1.01583 16.2492 
20.9019 1.03418 16.2813 
22.5786 1.04457 16.2386 
30.0923 1.08542 16.2828 
30.1152 1.04623 16.2447 
20.7496 1.14406 16.2662 
20.8829 1.15386 16.2374 
20.9081 1.11263 16.2943 
22.555 1.15192 16.2564 
30.0844 1.13955 16.2502 
20.7275 1.2554 16.246 
20.8687 1.23242 16.2368 
22.5332 1.23542 16.2502 
30.087 1.24889 16.2458 
30.1006 1.28722 16.2194 
20.7274 1.35371 16.2467 
20.8522 1.34923 16.2573 
22.5281 1.36168 16.2494 
30.0964 1.33796 16.2703 
30.1024 1.34906 16.2293 
20.7283 1.45399 16.2671 
20.8436 1.44056 16.2556 
22.5757 1.46032 16.2489 
22.6043 1.49354 16.2512 
30.0629 1.45199 16.2522 
20.6928 1.55658 16.2091 
20.7148 1.54679 16.2684 
20.8393 1.57348 16.2527 
22.6567 1.55043 16.2333 
30.0402 1.55518 16.2514 
20.6865 1.6356 16.2131 
20.7042 1.67905 16.2837 
20.8338 1.65247 16.2436 
22.7117 1.64419 16.2468 
30.0537 1.65405 16.245 
20.6823 1.73845 16.2395 
20.7047 1.70868 16.2971 
20.8235 1.76001 16.2428 
22.7322 1.75047 16.2485 
30.0425 1.75201 16.2481 
20.6691 1.85744 16.2495 
20.8112 1.84732 16.2567 
22.7607 1.83352 16.2648 
22.8323 1.89978 16.2584 
29.9938 1.86402 16.2522 
30.0099 1.83087 16.2401 
20.6481 1.95588 16.2358 
20.7892 1.95014 16.2427 
22.8522 1.93795 16.2573 
29.9956 1.92227 16.243 
30.0064 1.97952 16.2348 
20.6453 2.05574 16.2621 
20.7759 2.06025 16.2502 
22.8917 2.06371 16.2551 
30.0167 2.05066 16.2355 
20.6205 2.15562 16.2473 
20.7674 2.14403 16.2515 
22.8974 2.12014 16.2235 
22.9072 2.16834 16.2523 
29.9879 2.14965 16.2567 
30.0058 2.11274 16.2452 
20.5985 2.2889 16.2087 
20.6174 2.25127 16.2618 
20.7553 2.23261 16.2557 
22.9721 2.27488 16.2554 
29.9448 2.24413 16.2616 
20.5942 2.36585 16.2252 
20.6344 2.35569 16.25 
20.7175 2.35249 16.2494 
23.029 2.3532 16.2528 
29.7924 2.38219 16.2714 
29.8412 2.35063 16.2594 
29.9107 2.31556 16.2489 
20.5839 2.44922 16.2283 
20.6625 2.45324 16.2552 
20.7148 2.43494 16.2878 
23.0684 2.4525 16.2518 
29.6627 2.49088 16.2449 
29.7417 2.43129 16.2628 
20.5838 2.55121 16.263 
20.6847 2.55577 16.2485 
20.7075 2.51518 16.2873 
23.0829 2.55608 16.2514 
29.4873 2.58412 16.2672 
29.5609 2.53123 16.2453 
29.608 2.50874 16.2317 
20.572 2.65547 16.2583 
20.6735 2.62847 16.2523 
23.0955 2.62293 16.2087 
23.1328 2.65288 16.2453 
29.3655 2.69241 16.2731 
29.4383 2.63565 16.2553 
20.5515 2.7564 16.2339 
20.6585 2.7615 16.2539 
23.1825 2.71416 16.2443 
23.2195 2.78444 16.2448 
29.1779 2.78258 16.252 
29.2417 2.74862 16.256 
29.3493 2.70829 16.2323 
20.5498 2.83904 16.2605 
20.6467 2.85275 16.2498 
23.2383 2.85194 16.2668 
29.0908 2.87054 16.2641 
29.1289 2.82735 16.2363 
20.5284 2.95204 16.2423 
20.6408 2.94991 16.2635 
23.2493 2.95799 16.2625 
28.8662 2.98853 16.2638 
28.9596 2.94996 16.2425 
29.035 2.92347 16.2383 
20.5126 3.05645 16.2432 
20.6207 3.04205 16.247 
23.2772 3.02649 16.2427 
23.3308 3.07945 16.2453 
28.7732 3.06522 16.255 
28.8294 3.0191 16.2357 
20.4936 3.15112 16.2235 
20.5522 3.1476 16.2405 
20.6203 3.15719 16.2845 
23.3824 3.15581 16.2669 
23.4002 3.19544 16.2437 
28.5767 3.19038 16.255 
28.6485 3.1719 16.2476 
28.73 3.12811 16.248 
20.4855 3.24909 16.231 
20.5642 3.27531 16.2468 
20.6159 3.23553 16.283 
23.4191 3.25117 16.2465 
28.4653 3.27117 16.2443 
28.5206 3.22271 16.2533 
20.4671 3.34292 16.2516 
20.5956 3.35665 16.2373 
20.6098 3.35498 16.2754 
23.4775 3.31839 16.2202 
23.5492 3.33002 16.2492 
23.6396 3.35692 16.2486 
23.7605 3.38331 16.2504 
23.8428 3.36999 16.2434 
23.9519 3.35164 16.2699 
24.0286 3.38064 16.249 
24.2694 3.39102 16.2652 
24.3402 3.38416 16.2449 
24.414 3.39348 16.2567 
28.268 3.39541 16.2759 
28.3653 3.3689 16.2624 
28.4299 3.31516 16.2411 
20.4344 3.44979 16.2497 
20.5889 3.44985 16.2596 
20.6065 3.40365 16.2857 
24.079 3.40567 16.2416 
24.1441 3.41539 16.25 
24.2461 3.40456 16.2237 
24.4606 3.42188 16.2673 
24.5349 3.45625 16.2234 
24.6584 3.44377 16.2449 
24.7508 3.42877 16.2549 
24.8429 3.45342 16.2509 
24.9464 3.48994 16.2578 
25.0482 3.48371 16.2578 
25.1297 3.46632 16.2596 
25.2392 3.47364 16.2618 
25.5673 3.49407 16.2789 
25.6341 3.49706 16.2764 
28.1512 3.46507 16.2621 
28.247 3.40981 16.253 
28.3145 3.4034 16.2089 
20.4281 3.54048 16.247 
20.5655 3.54077 16.2517 
24.9709 3.5015 16.2102 
25.2964 3.50032 16.234 
25.3354 3.51491 16.2655 
25.4476 3.52161 16.2502 
25.5236 3.50803 16.2288 
25.6521 3.51218 16.233 
25.7606 3.55349 16.2429 
25.8163 3.56098 16.2452 
25.9584 3.53754 16.253 
26.0571 3.54771 16.2671 
26.1408 3.58734 16.251 
26.2552 3.59419 16.2649 
26.3375 3.5735 16.2526 
26.445 3.57723 16.249 
28.0609 3.55762 16.2547 
28.1014 3.50141 16.2872 
20.4282 3.64784 16.2484 
20.5466 3.63582 16.2519 
26.1858 3.6025 16.222 
26.2259 3.60318 16.2332 
26.5409 3.62535 16.2499 
26.6515 3.63216 16.254 
26.7531 3.61241 16.2528 
26.8438 3.62389 16.2519 
26.9523 3.6661 16.2527 
27.0443 3.67886 16.2483 
27.1585 3.65254 16.2434 
27.2601 3.66165 16.2257 
27.3278 3.68309 16.2465 
27.576 3.69318 16.264 
27.649 3.69111 16.2608 
27.7503 3.69542 16.2571 
27.8431 3.67401 16.2435 
27.9617 3.62832 16.2487 
28.0153 3.60599 16.2204 
20.4182 3.75641 16.2482 
20.5261 3.74824 16.249 
27.3816 3.70969 16.2474 
27.4404 3.71888 16.2409 
27.5438 3.70477 16.2291 
27.7632 3.70189 16.2069 
20.3968 3.84004 16.2117 
20.4282 3.85257 16.2645 
20.5173 3.85781 16.2595 
20.3888 3.95116 16.2256 
20.4483 3.94885 16.2439 
20.5193 3.94844 16.2772 
20.3839 4.06263 16.2507 
20.4898 4.02393 16.219 
20.5092 4.04475 16.272 
20.3786 4.15697 16.264 
20.4832 4.14779 16.2475 
20.5038 4.10747 16.2822 
20.3592 4.25708 16.2363 
20.4789 4.25662 16.2469 
20.5013 4.28801 16.2984 
20.3499 4.35962 16.2506 
20.4711 4.35951 16.234 
20.5031 4.3071 16.2982 
20.3304 4.45516 16.2274 
20.4717 4.4592 16.2609 
20.3274 4.55024 16.2587 
20.4384 4.57185 16.2483 
20.2962 4.68416 16.2126 
20.3146 4.62986 16.2502 
20.4227 4.65588 16.249 
20.2904 4.75091 16.2241 
20.3199 4.73608 16.2705 
20.4083 4.72774 16.2467 
20.2808 4.84913 16.2386 
20.3875 4.86512 16.2561 
20.405 4.87919 16.2921 
20.2679 4.94076 16.2378 
20.3743 4.94641 16.2522 
20.2569 5.04576 16.2513 
20.358 5.05816 16.2519 
20.2454 5.15123 16.2552 
20.3448 5.15161 16.2418 
20.2327 5.25625 16.2456 
20.328 5.25411 16.2389 
20.2281 5.35282 16.2616 
20.3238 5.33875 16.2536 
20.1979 5.48452 16.2171 
20.2133 5.44201 16.256 
20.3184 5.45212 16.2482 
20.1943 5.55592 16.2382 
20.2318 5.54249 16.2542 
20.3127 5.55129 16.2726 
20.1668 5.6654 16.2559 
20.2899 5.64251 16.2222 
20.3172 5.64884 16.2881 
20.1396 5.73991 16.2475 
20.2893 5.7524 16.2342 
20.313 5.73515 16.2939 
20.1419 5.85033 16.2392 
20.2747 5.85389 16.2609 
20.1388 5.95363 16.2371 
20.2496 5.95162 16.2451 
20.1305 6.0332 16.2319 
20.2629 6.05927 16.2507 
20.1306 6.1388 16.2548 
20.2626 6.14042 16.2544 
20.0932 6.28041 16.2167 
20.1136 6.24355 16.2583 
20.2467 6.25816 16.2346 
20.0893 6.35611 16.2302 
20.1036 6.33195 16.2689 
20.2335 6.36068 16.2545 
20.0858 6.44802 16.2389 
20.1621 6.43866 16.2471 
20.2194 6.43513 16.2662 
20.0804 6.54866 16.2613 
20.1666 6.5606 16.2259 
20.2115 6.54666 16.2901 
20.0635 6.6559 16.2545 
20.1715 6.64453 16.2366 
20.206 6.64029 16.2857 
20.0463 6.74586 16.2412 
20.182 6.75674 16.2497 
20.2007 6.78178 16.2753 
20.0286 6.85672 16.2406 
20.1716 6.85532 16.2639 
20.0246 6.93754 16.2611 
20.1286 6.94306 16.2367 
19.9977 7.09277 16.2059 
20.0287 7.04172 16.2345 
20.1186 7.04062 16.2623 
19.9929 7.17736 16.2291 
20.0628 7.15832 16.2426 
20.114 7.14968 16.2793 
19.9873 7.25604 16.2596 
20.0778 7.25296 16.2435 
20.1078 7.22863 16.2912 
19.9759 7.35698 16.2627 
20.0744 7.33 16.2381 
20.1018 7.35921 16.2899 
19.9625 7.46456 16.262 
20.0725 7.4365 16.2448 
20.1142 7.40879 16.2995 
19.9477 7.55581 16.2409 
20.0634 7.56354 16.2453 
19.9376 7.65094 16.2586 
20.0476 7.65469 16.2437 
19.9218 7.75178 16.2344 
20.0346 7.74241 16.2443 
19.9 7.8962 16.244 
19.9326 7.84256 16.2417 
20.0287 7.84349 16.263 
19.8832 7.94116 16.2302 
19.9979 7.92151 16.2072 
20.0287 7.93985 16.2659 
19.8688 8.0531 16.2502 
20.0214 8.04741 16.2503 
19.863 8.16609 16.2459 
19.9916 8.1554 16.2341 
20.0142 8.13571 16.2712 
19.855 8.25713 16.2468 
19.9771 8.27776 16.2377 
20.0162 8.26296 16.2915 
19.851 8.33319 16.2494 
19.9689 8.36014 16.2365 
20.0163 8.32272 16.2922 
19.8313 8.45929 16.2462 
19.973 8.45951 16.2579 
20.0102 8.41136 16.2932 
19.8142 8.57255 16.2447 
19.9487 8.54548 16.2369 
19.8137 8.6437 16.2604 
19.9694 8.65409 16.2681 
20.001 8.62216 16.2997 
19.7955 8.76896 16.2326 
19.8057 8.73584 16.2605 
19.9526 8.73761 16.2598 
19.787 8.85711 16.2553 
19.8838 8.86232 16.2153 
19.918 8.83415 16.2504 
19.7736 8.96613 16.2453 
19.887 8.97064 16.2384 
19.9256 8.93973 16.2767 
19.7642 9.04942 16.2529 
19.8829 9.05998 16.2254 
19.9431 9.04909 16.2855 
19.7508 9.15667 16.2376 
19.8741 9.13694 16.2252 
19.9467 9.14497 16.2792 
19.7377 9.2447 16.2395 
19.8662 9.24908 16.2194 
19.935 9.23355 16.2681 
19.7257 9.3455 16.2397 
19.8679 9.34544 16.2321 
19.9311 9.33247 16.2778 
19.7177 9.44402 16.2538 
19.8545 9.4527 16.2472 
19.9112 9.43807 16.2884 
19.7081 9.55305 16.2553 
19.8488 9.54021 16.246 
19.9166 9.56241 16.2908 
19.6951 9.67684 16.2317 
19.7044 9.63191 16.2614 
19.8485 9.64171 16.2456 
19.9247 9.65433 16.2901 
19.685 9.75001 16.2446 
19.7975 9.77334 16.2011 
19.8361 9.74551 16.2352 
19.9154 9.75453 16.2849 
19.6682 9.85311 16.2509 
19.7824 9.88774 16.2052 
19.851 9.85512 16.2595 
19.9063 9.82013 16.2893 
19.6544 9.94757 16.2347 
19.7832 9.94372 16.2174 
19.8478 9.92612 16.2691 
19.649 10.0678 16.2575 
19.7724 10.0472 16.2194 
19.818 10.0595 16.255 
19.6348 10.1515 16.2375 
19.7781 10.1514 16.2183 
19.8378 10.16 16.2672 
19.6221 10.2391 16.2759 
19.7796 10.2569 16.2304 
19.841 10.2456 16.2767 
19.5952 10.3794 16.2541 
19.6054 10.3167 16.2661 
19.7619 10.3586 16.2397 
19.822 10.3508 16.2836 
19.5903 10.4551 16.2536 
19.7518 10.4445 16.2366 
19.8279 10.4577 16.2843 
19.587 10.5492 16.2485 
19.6007 10.5161 16.265 
19.7596 10.541 16.2422 
19.827 10.5359 16.2852 
19.5802 10.6417 16.2503 
19.7565 10.6458 16.2369 
19.8039 10.6376 16.2783 
19.5804 10.7443 16.2604 
19.7583 10.7538 16.2336 
19.8071 10.7257 16.2844 
19.5736 10.8592 16.2715 
19.6593 10.8702 16.2064 
19.7653 10.8586 16.2539 
19.8036 10.8344 16.291 
19.567 10.9569 16.2617 
19.6627 10.9414 16.2108 
19.7491 10.9524 16.2539 
19.5522 11.0563 16.2558 
19.655 11.0519 16.2092 
19.7354 11.0489 16.2514 
19.5428 11.1578 16.2596 
19.6514 11.159 16.2135 
19.7385 11.1429 16.2613 
19.5485 11.2462 16.2518 
19.6397 11.2367 16.2194 
19.7345 11.2576 16.255 
19.4964 11.3991 16.2692 
19.5435 11.3582 16.2372 
19.6538 11.3315 16.2289 
19.7329 11.3519 16.264 
19.3631 11.4777 16.22 
19.4558 11.4603 16.2522 
19.511 11.4175 16.2309 
19.6539 11.4459 16.2333 
19.7169 11.4542 16.2754 
19.334 11.5484 16.2301 
19.4188 11.5538 16.2895 
19.6614 11.5482 16.231 
19.7077 11.5371 16.2722 
19.363 11.6379 16.2181 
19.4322 11.6519 16.2824 
19.6608 11.6406 16.2231 
19.7067 11.6441 16.2687 
19.4241 11.7315 16.2343 
19.6814 11.7517 16.2466 
19.7011 11.7421 16.2971 
19.4143 11.8468 16.2563 
19.6522 11.8423 16.2439 
19.4053 11.9567 16.2744 
19.6474 11.9539 16.248 
19.3983 12.0668 16.2688 
19.4059 12.0435 16.2437 
19.5889 12.0928 16.2076 
19.6411 12.0565 16.2437 
19.3907 12.1582 16.2561 
19.5916 12.1592 16.2059 
19.6438 12.1436 16.2479 
19.373 12.2652 16.2504 
19.5915 12.2461 16.2034 
19.637 12.2491 16.247 
19.3645 12.3388 16.2405 
19.5938 12.3487 16.2093 
19.6308 12.3375 16.2462 
19.3492 12.4579 16.2512 
19.5798 12.4416 16.2149 
19.6272 12.4453 16.2679 
19.343 12.5322 16.2566 
19.5482 12.5467 16.2174 
19.6105 12.5402 16.2849 
19.2933 12.6633 16.2687 
19.3293 12.6067 16.2576 
19.4945 12.6277 16.2036 
19.5534 12.6577 16.2399 
19.2644 12.7519 16.2492 
19.5404 12.7511 16.2255 
19.255 12.8453 16.2472 
19.5609 12.8541 16.2503 
19.248 12.9658 16.2359 
19.5665 12.9351 16.2468 
19.238 13.0543 16.2491 
19.5642 13.0511 16.2468 
19.2358 13.17 16.2473 
19.5582 13.1605 16.2528 
19.2373 13.2488 16.2465 
19.5468 13.2594 16.2584 
19.2303 13.3614 16.2553 
19.5261 13.3313 16.2427 
19.195 13.4894 16.2992 
19.2111 13.441 16.251 
19.4934 13.463 16.2413 
19.5083 13.4242 16.2574 
19.1839 13.5343 16.2512 
19.4861 13.5354 16.2532 
19.153 13.6346 16.2506 
19.455 13.673 16.2589 
19.0933 13.7585 16.2662 
19.1187 13.7499 16.2305 
19.4336 13.7539 16.2486 
18.9928 13.8923 16.2793 
19.0305 13.8569 16.2491 
19.1122 13.8031 16.2023 
19.399 13.8572 16.2167 
19.4186 13.8512 16.2624 
18.974 13.9434 16.2481 
19.3608 13.9509 16.2232 
18.9672 14.0623 16.2592 
19.3503 14.0473 16.2509 
18.9993 14.1148 16.2653 
19.0459 14.1481 16.2397 
19.162 14.181 16.2411 
19.2374 14.1743 16.2477 
19.3278 14.1239 16.2695 
22.7897 -14.9092 16.3867 
22.8146 -14.9093 16.3557 
22.7872 -14.8605 16.3326 
22.8393 -14.8376 16.3596 
22.788 -14.7839 16.3561 
22.8062 -14.7606 16.3496 
22.6942 -13.7065 16.3506 
22.7076 -13.7052 16.313 
22.6729 -13.6723 16.3456 
22.7236 -13.6479 16.3361 
22.6655 -13.5528 16.3664 
22.7295 -13.5663 16.3513 
22.6724 -12.5271 16.306 
22.5521 -12.4532 16.3392 
22.6353 -12.4527 16.3563 
22.7055 -12.4623 16.3006 
22.5586 -12.3432 16.3472 
22.6242 -12.3557 16.336 
22.4813 -11.4138 16.3266 
22.5429 -11.4077 16.3118 
22.3785 -11.3277 16.362 
22.4549 -11.3647 16.3593 
22.5401 -11.3475 16.3225 
22.3451 -11.2418 16.3554 
22.4974 -11.2661 16.3801 
22.5144 -11.2519 16.3469 
22.3437 -11.1589 16.3433 
22.4853 -11.1154 16.3733 
22.5065 -11.1703 16.3563 
22.3433 -11.05 16.3616 
22.4699 -11.0473 16.3533 
22.3381 -10.9566 16.3495 
22.4472 -10.9532 16.363 
22.3312 -10.8495 16.3407 
22.4461 -10.8534 16.3698 
22.3197 -10.7564 16.3558 
22.4528 -10.7657 16.346 
22.2959 -10.6601 16.3917 
22.3138 -10.6626 16.3451 
22.4441 -10.656 16.347 
22.2909 -10.5532 16.3697 
22.3067 -10.5138 16.3196 
22.4344 -10.5492 16.3455 
22.2834 -10.4504 16.3669 
22.3048 -10.4196 16.3009 
22.4284 -10.4514 16.3432 
22.277 -10.3522 16.3568 
22.4174 -10.3495 16.3629 
22.267 -10.2399 16.3451 
22.3932 -10.2279 16.385 
22.4171 -10.2587 16.3512 
22.2553 -10.1408 16.3444 
22.3889 -10.1583 16.3728 
22.4159 -10.1383 16.3282 
22.2435 -10.041 16.3526 
22.3868 -10.0525 16.3698 
22.4173 -10.0523 16.3228 
22.241 -9.95285 16.3389 
22.3788 -9.94491 16.3689 
22.4171 -9.95523 16.3151 
22.2206 -9.83699 16.3657 
22.3721 -9.84971 16.3669 
22.4155 -9.86384 16.3087 
22.2159 -9.7481 16.3484 
22.3646 -9.75768 16.3665 
22.4071 -9.70279 16.3014 
22.19 -9.65134 16.3935 
22.211 -9.66432 16.3264 
22.3672 -9.64542 16.3565 
22.4035 -9.66439 16.302 
22.1843 -9.53583 16.3656 
22.2052 -9.56017 16.3128 
22.3666 -9.54707 16.3458 
22.1813 -9.45147 16.3531 
22.2003 -9.49937 16.3039 
22.3528 -9.4605 16.3537 
22.1742 -9.35192 16.3423 
22.3407 -9.35762 16.3556 
22.1576 -9.25336 16.3628 
22.342 -9.25875 16.3356 
22.1505 -9.14717 16.3477 
22.3294 -9.14811 16.3434 
22.1335 -9.05405 16.3511 
22.2944 -9.04266 16.3888 
22.3155 -9.03922 16.3514 
22.09 -8.94007 16.3755 
22.11 -8.95519 16.3236 
22.2911 -8.9268 16.3946 
22.3264 -8.9579 16.3365 
22.0948 -8.86502 16.3602 
22.1001 -8.85093 16.3298 
22.2855 -8.85891 16.3798 
22.3185 -8.85773 16.3146 
22.0966 -8.76941 16.3795 
22.1046 -8.75589 16.3376 
22.2691 -8.7484 16.3511 
22.3007 -8.79287 16.3058 
22.0882 -8.63767 16.3761 
22.1062 -8.66633 16.3205 
22.2559 -8.63387 16.3555 
22.0837 -8.55697 16.3515 
22.2502 -8.5427 16.3656 
22.0731 -8.43796 16.3506 
22.2708 -8.44894 16.3368 
22.0585 -8.34516 16.3679 
22.2657 -8.34655 16.3329 
22.0518 -8.25967 16.3481 
22.2512 -8.25212 16.3383 
22.0382 -8.15507 16.3525 
22.2398 -8.16858 16.3488 
22.0275 -8.0505 16.3538 
22.1963 -8.05166 16.3959 
22.2309 -8.04551 16.3496 
22.0172 -7.9293 16.3322 
22.1963 -7.99854 16.3921 
22.2126 -7.93507 16.3649 
21.9941 -7.85016 16.3953 
22.0101 -7.83981 16.3306 
22.1887 -7.84216 16.3856 
22.2286 -7.86436 16.3328 
21.9936 -7.73807 16.3499 
22.0032 -7.77358 16.3306 
22.1883 -7.73174 16.3837 
22.2173 -7.75104 16.3316 
21.976 -7.64975 16.3587 
22.1994 -7.65284 16.3849 
22.2213 -7.63444 16.3433 
21.9628 -7.54251 16.3488 
22.2622 -7.53903 16.3477 
21.9553 -7.44933 16.3428 
22.2824 -7.49549 16.3718 
22.3465 -7.44711 16.3611 
22.4222 -7.41344 16.3018 
21.9438 -7.36835 16.3574 
22.3763 -7.39092 16.3833 
22.4379 -7.34416 16.3518 
22.5027 -7.3124 16.3073 
21.9332 -7.26473 16.3566 
22.4694 -7.26378 16.3883 
22.5288 -7.23379 16.3375 
21.9192 -7.14435 16.3555 
22.543 -7.15852 16.3574 
22.611 -7.12509 16.3128 
21.9062 -7.05188 16.3465 
22.5672 -7.06122 16.3666 
22.6222 -7.04326 16.326 
21.8938 -6.9619 16.3612 
22.5742 -6.94779 16.3799 
22.6298 -6.94998 16.3266 
21.878 -6.84604 16.3539 
22.2621 -6.86616 16.3962 
22.5494 -6.82427 16.3669 
22.6274 -6.84459 16.3283 
21.8696 -6.75331 16.353 
22.5422 -6.75995 16.3663 
22.6183 -6.71398 16.3298 
21.8421 -6.63942 16.3539 
22.5574 -6.65636 16.3574 
22.6139 -6.6532 16.3211 
21.8381 -6.55857 16.3626 
22.5629 -6.54093 16.3554 
22.6003 -6.56321 16.3336 
21.8295 -6.44578 16.3461 
22.2453 -6.42192 16.3998 
22.4991 -6.43638 16.3967 
22.5748 -6.45828 16.3284 
21.8132 -6.34768 16.3532 
22.4965 -6.39147 16.3976 
22.5539 -6.35494 16.3438 
21.7947 -6.23119 16.3372 
21.8021 -6.27866 16.3439 
22.4865 -6.25578 16.3936 
22.5439 -6.25196 16.3497 
21.7839 -6.12449 16.3258 
22.4733 -6.15156 16.3981 
22.5523 -6.14267 16.3187 
21.7773 -6.06633 16.3437 
22.4895 -6.03886 16.3876 
22.5321 -6.06656 16.3486 
21.7602 -5.94153 16.3471 
22.476 -5.95727 16.3945 
22.5243 -5.96568 16.3383 
21.7461 -5.84975 16.3482 
22.4873 -5.83446 16.3832 
22.5113 -5.85295 16.3492 
21.733 -5.74125 16.3704 
22.4849 -5.73387 16.3711 
22.5034 -5.78249 16.3364 
21.7214 -5.66087 16.3406 
22.4774 -5.6505 16.354 
21.7084 -5.54988 16.35 
22.4655 -5.53364 16.337 
21.6922 -5.44482 16.3317 
21.7012 -5.47652 16.3727 
22.4543 -5.46264 16.3404 
21.6789 -5.34526 16.3467 
22.4414 -5.34418 16.3551 
21.6676 -5.25329 16.3525 
22.4299 -5.24282 16.3499 
21.6557 -5.16059 16.3489 
22.4176 -5.1368 16.3476 
21.6379 -5.04725 16.3431 
22.3999 -5.00869 16.3315 
22.4072 -5.05831 16.361 
21.6276 -4.95649 16.3509 
22.3923 -4.9559 16.3514 
21.614 -4.8544 16.3404 
22.3771 -4.84331 16.326 
21.5966 -4.72438 16.3319 
21.605 -4.77878 16.3538 
22.3659 -4.7407 16.3409 
21.5903 -4.6709 16.3466 
22.3523 -4.64277 16.3454 
21.5767 -4.55374 16.3666 
22.339 -4.54651 16.3587 
21.5631 -4.44924 16.3551 
22.3249 -4.44854 16.3589 
21.5426 -4.35734 16.3498 
22.3131 -4.33389 16.3413 
21.5284 -4.24503 16.3472 
22.3103 -4.25673 16.3406 
21.5206 -4.15582 16.357 
22.2912 -4.12939 16.3607 
22.3041 -4.17466 16.3388 
21.5096 -4.06947 16.3425 
22.2692 -4.03803 16.3503 
21.4942 -3.94276 16.373 
22.2611 -3.94689 16.3349 
21.4804 -3.85006 16.3608 
22.2483 -3.85341 16.3621 
21.4697 -3.76092 16.3723 
22.232 -3.74704 16.3538 
21.4525 -3.65903 16.3511 
22.2234 -3.66048 16.3278 
21.4378 -3.55338 16.3446 
22.2143 -3.56079 16.3471 
24.24 -3.51839 16.3409 
24.3373 -3.52451 16.3539 
24.4106 -3.53954 16.3423 
24.5338 -3.54557 16.3384 
24.6321 -3.50842 16.3427 
24.7965 -3.505 16.3278 
24.8531 -3.5327 16.3396 
24.9432 -3.51995 16.3548 
25.2778 -3.50916 16.3615 
25.3157 -3.50931 16.3114 
21.4218 -3.45411 16.3646 
22.1977 -3.40185 16.3954 
22.2073 -3.45682 16.363 
24.1526 -3.44159 16.3467 
24.2041 -3.49679 16.3744 
24.6749 -3.49547 16.3727 
24.7511 -3.49359 16.3524 
24.993 -3.49396 16.3855 
25.0452 -3.48215 16.3521 
25.1365 -3.46903 16.3518 
25.2239 -3.48642 16.3414 
25.3609 -3.49116 16.352 
25.4498 -3.44712 16.3638 
25.5496 -3.43665 16.3386 
25.6433 -3.45037 16.3265 
25.7628 -3.44678 16.345 
25.8381 -3.41977 16.3393 
26.1427 -3.40869 16.3505 
21.4093 -3.36447 16.3408 
22.1918 -3.33908 16.3479 
22.2032 -3.39542 16.3438 
24.0763 -3.33801 16.3464 
24.1063 -3.37758 16.3544 
25.8797 -3.39228 16.3893 
25.9358 -3.38722 16.3588 
26.0458 -3.3869 16.3493 
26.1818 -3.39076 16.3666 
26.2482 -3.37096 16.3428 
26.3633 -3.35002 16.3537 
26.4462 -3.35782 16.3671 
26.554 -3.3806 16.3258 
26.6438 -3.35338 16.3467 
26.7396 -3.31786 16.3645 
26.8472 -3.31366 16.3561 
26.9472 -3.34529 16.3439 
27.031 -3.32216 16.3419 
27.2854 -3.30159 16.3019 
27.3397 -3.30186 16.3209 
21.3931 -3.24363 16.3313 
21.4016 -3.29483 16.3566 
22.184 -3.27191 16.3581 
23.9618 -3.22742 16.3613 
24.0217 -3.27258 16.3631 
27.0827 -3.29231 16.3435 
27.1611 -3.27654 16.3506 
27.241 -3.28756 16.3458 
27.3669 -3.29186 16.3511 
27.4443 -3.26915 16.3335 
27.5402 -3.23658 16.3538 
27.6594 -3.24388 16.3361 
27.7455 -3.25639 16.3355 
27.8582 -3.23433 16.3444 
27.9431 -3.20951 16.3514 
28.065 -3.21471 16.3508 
28.1403 -3.22694 16.3558 
28.2094 -3.21047 16.3475 
21.3776 -3.14324 16.3429 
22.1656 -3.14312 16.3453 
23.8693 -3.14087 16.3562 
23.9103 -3.19893 16.3294 
27.9775 -3.19672 16.3987 
28.0337 -3.19662 16.3599 
28.2703 -3.1867 16.3384 
28.3552 -3.16388 16.3524 
28.4382 -3.15224 16.338 
28.5312 -3.12726 16.3516 
21.3658 -3.05988 16.3331 
22.1555 -3.05039 16.3693 
23.8416 -3.0587 16.3372 
28.5839 -3.08089 16.3458 
28.6269 -3.02883 16.355 
21.3546 -2.94853 16.3508 
22.1413 -2.96106 16.3371 
23.7693 -2.93682 16.3539 
23.8097 -2.99385 16.3151 
28.6674 -2.98412 16.3466 
28.7233 -2.92486 16.3541 
21.3413 -2.84523 16.3488 
22.1254 -2.84997 16.3633 
23.6465 -2.84075 16.3494 
23.7165 -2.88612 16.3663 
28.7679 -2.87764 16.3633 
28.8281 -2.81473 16.3337 
21.3267 -2.75209 16.3538 
22.1106 -2.75453 16.3482 
23.5936 -2.74584 16.3558 
23.6064 -2.7924 16.3742 
28.8618 -2.7783 16.3398 
28.911 -2.72678 16.3456 
21.3116 -2.63344 16.334 
22.0926 -2.65941 16.3101 
22.1054 -2.65658 16.3645 
23.5512 -2.63595 16.3416 
28.9618 -2.67641 16.335 
29.0155 -2.62009 16.342 
21.2955 -2.52583 16.3532 
21.3052 -2.57033 16.3262 
22.0855 -2.54843 16.3422 
23.3942 -2.50693 16.3039 
23.4526 -2.53918 16.3494 
23.5132 -2.59088 16.3245 
29.0764 -2.5553 16.3611 
29.1142 -2.5211 16.3498 
21.2864 -2.45819 16.3586 
21.3214 -2.44045 16.3078 
22.077 -2.43795 16.3596 
23.3574 -2.45087 16.3485 
29.1609 -2.47533 16.3597 
29.2234 -2.4203 16.3412 
21.277 -2.35222 16.3586 
21.3196 -2.37055 16.3107 
22.06 -2.34714 16.342 
23.2952 -2.3064 16.3267 
23.3206 -2.3559 16.3382 
29.2682 -2.37445 16.3517 
29.3198 -2.32386 16.3402 
21.2711 -2.24142 16.3454 
21.3242 -2.23835 16.3106 
22.0526 -2.24646 16.3534 
23.1838 -2.21572 16.3282 
23.2554 -2.25868 16.3482 
29.3771 -2.26914 16.3568 
29.4287 -2.21926 16.3546 
21.2688 -2.154 16.3451 
21.3218 -2.14287 16.3057 
22.0359 -2.13597 16.3466 
23.1292 -2.14866 16.3437 
29.4768 -2.16748 16.3633 
29.5274 -2.11554 16.367 
21.2499 -2.04714 16.3547 
21.993 -2.0076 16.3135 
22.0255 -2.02964 16.3621 
23.0827 -2.03646 16.3474 
23.1033 -2.08846 16.3684 
29.5612 -2.08342 16.3752 
29.6373 -2.01524 16.3647 
21.2612 -1.93495 16.3389 
21.5337 -1.9218 16.312 
21.9822 -1.95088 16.3125 
22.0108 -1.93564 16.3573 
22.9973 -1.90665 16.3679 
23.0237 -1.94069 16.3658 
29.682 -1.97447 16.3621 
29.7338 -1.92751 16.3496 
21.2397 -1.84491 16.3547 
21.5509 -1.85463 16.3176 
21.6308 -1.84944 16.3096 
