ply
format ascii 1.0
comment Created by CloudCompare v2.11.1 (Anoia)
comment Created 2026/6/3 下午9:08
obj_info Generated by CloudCompare!
element vertex 1933
property float x
property float y
property float z
end_header
22.6714 24.358 3.74776 
29.8344 24.0907 3.86433 
33.7568 23.8769 3.8343 
34.604 24.0324 3.92786 
24.8683 22.6102 4.51774 
31.6495 22.7702 4.59423 
31.0164 23.2306 4.54723 
29.8241 24.0977 4.50025 
33.5778 23.8087 4.64855 
33.8651 23.9164 4.38928 
34.5618 24.0326 4.59254 
35.3333 23.891 4.55744 
26.0026 21.7844 5.4411 
24.9003 22.5865 5.27086 
31.6353 22.7801 5.29298 
23.9419 23.3202 5.25287 
30.4662 23.6307 5.21579 
31.0128 23.2328 5.26095 
33.499 23.7693 5.2631 
29.8374 24.0876 5.19612 
25.4075 20.0775 6.13342 
24.7068 20.8441 6.06305 
23.3615 21.6516 6.16412 
26.0089 21.7796 5.79173 
37.0562 22.264 5.80363 
22.1488 22.5364 6.22745 
22.8075 22.8894 5.89402 
31.6213 22.7899 5.98096 
36.7761 22.8924 5.88022 
31.0086 23.2354 5.93218 
33.4453 23.7514 5.78971 
22.0509 24.075 5.93757 
33.8778 24.1194 6.02454 
35.9188 23.8928 6.19758 
26.4449 19.2877 6.77151 
22.0452 22.687 6.67891 
31.6006 22.8047 6.51843 
32.5551 22.96 6.74797 
33.2575 23.6008 6.59398 
33.8933 23.5312 6.76282 
34.5134 23.468 6.85353 
22.1278 24.0229 6.56298 
33.9492 24.0211 6.47355 
28.2717 17.8732 7.69843 
27.3853 18.5529 7.54129 
26.439 19.2927 7.40784 
25.5085 20.0089 7.44053 
32.5161 21.6538 7.55336 
33.8748 21.9986 7.49259 
35.3331 22.2123 7.34489 
22.0944 22.6232 7.33985 
34.2551 22.8424 7.15477 
34.7784 22.711 7.23662 
34.8235 23.1303 7.0347 
22.1773 23.9841 7.33107 
27.9772 17.5657 8.12427 
27.3581 18.5847 8.03195 
26.3036 19.2064 7.98496 
35.4318 19.4119 7.99537 
24.9331 19.7417 8.1804 
23.3709 21.5941 8.04869 
32.4941 21.6696 7.95367 
33.0464 21.2677 7.97936 
32.431 21.7147 8.26505 
22.0715 22.616 7.94818 
36.0765 10.2212 8.6178 
27.3549 16.8836 8.64717 
25.586 18.3748 8.56643 
24.1046 19.1928 8.73179 
23.1612 19.9749 8.70217 
21.6343 20.7735 8.87398 
21.095 21.9725 8.71162 
20.899 23.2829 8.56548 
35.3126 19.5319 9.3659 
35.1744 19.6798 9.60136 
20.6904 21.5282 9.5256 
32.8155 21.4404 9.54296 
32.9734 21.3201 9.3639 
32.381 21.7924 9.25417 
33.4888 20.9432 9.97699 
29.6531 16.335 12.9814 
30.6138 16.2125 12.7573 
30.3337 15.8366 13.4502 
29.7369 14.8696 14.3742 
37.7612 18.147 0.547216 
26.0086 22.5294 0.314618 
31.3943 22.9582 0.487553 
30.4662 23.6332 0.49962 
30.9511 23.2806 0.512016 
33.1355 23.5906 0.473758 
33.9189 23.9451 0.517918 
34.6779 24.0497 0.491913 
23.3075 24.6162 0.449263 
22.161 25.5522 0.433465 
24.4669 22.9097 1.03616 
25.5028 22.6614 1.14874 
31.364 22.9795 1.04152 
23.4741 23.6749 1.29845 
30.3966 23.6832 1.08262 
30.9514 23.2794 1.06902 
33.0978 23.5701 1.09141 
33.8974 23.933 1.09884 
34.5708 24.0585 1.04717 
37.902 18.0087 1.79451 
24.4145 22.951 1.76211 
25.5984 22.6236 1.74348 
31.3406 22.996 1.78513 
31.7882 22.6699 1.81526 
23.5181 23.6306 1.80886 
30.3948 23.6842 1.75313 
30.9032 23.3141 1.73429 
33.0564 23.5475 1.77039 
35.9889 23.5707 1.74628 
21.6517 24.3491 1.92753 
33.8516 23.9505 1.82381 
34.5247 24.0619 1.7782 
37.9828 17.9289 2.51139 
26.1467 21.683 2.68542 
25.2875 22.3086 2.5092 
24.3614 22.9902 2.4685 
25.492 22.6716 2.24566 
36.7205 22.902 2.61025 
23.442 23.6865 2.55549 
30.9604 23.2722 2.33258 
33.011 23.5211 2.49087 
21.614 24.3763 2.32424 
34.025 23.9901 2.4418 
26.1269 21.6972 3.01231 
25.2531 22.3333 3.01253 
26.1072 21.7114 3.33589 
24.3023 23.0252 3.15848 
31.7279 22.7131 3.20707 
36.7228 22.8858 3.20852 
23.439 23.6876 3.13751 
32.9626 23.4866 3.15411 
23.2925 23.81 3.47559 
30.234 23.8002 3.47305 
37.9629 17.9753 3.8359 
25.1857 22.3818 4.00045 
25.2192 22.3577 3.50958 
26.0781 21.7323 3.8157 
24.2503 23.0626 3.83942 
30.6832 23.473 3.84978 
32.8654 23.3884 4.0195 
32.9165 23.4419 3.59435 
23.2517 23.8442 4.00453 
30.2112 23.8166 3.89828 
26.0397 21.7599 4.4483 
24.2117 23.0905 4.34526 
25.0504 22.4792 4.60535 
24.0422 23.223 4.60927 
30.6376 23.5059 4.56655 
31.1037 23.1667 4.6875 
32.7949 23.3146 4.60583 
23.2034 23.8915 4.70556 
30.1779 23.8405 4.51998 
33.9528 23.9433 4.54009 
25.9947 21.7917 5.28368 
25.0317 22.4924 5.28611 
24.0863 23.2012 5.20644 
30.6235 23.5158 5.26505 
31.1347 23.1437 5.23026 
32.7146 23.2306 5.27347 
23.1578 23.9397 5.40349 
30.1327 23.8732 5.28324 
33.9549 23.9455 5.26393 
25.3966 20.0849 6.20203 
24.4391 20.8097 6.20107 
25.8591 20.4482 5.92207 
23.4518 21.6377 6.14223 
25.7038 21.9307 5.79554 
22.7751 22.7192 5.96117 
25.0645 22.4691 5.77634 
32.5893 23.0713 5.86333 
22.3118 23.5835 6.0562 
30.5806 23.5469 5.84771 
31.1201 23.154 5.90679 
32.6406 23.1515 5.86459 
33.225 23.7457 5.98464 
35.3131 24.0077 5.96781 
26.3405 19.3681 6.59327 
23.3689 21.5931 6.69166 
22.3374 22.3923 6.41354 
22.1766 22.5502 6.73823 
31.6223 22.7883 6.51213 
32.9698 22.6556 6.95174 
22.204 23.5102 6.59146 
31.1284 23.1475 6.38573 
32.8847 23.5727 6.50756 
36.7309 23.1873 6.40719 
28.1405 17.9712 7.57995 
27.1351 18.7387 7.24342 
26.3178 19.386 7.26588 
25.3891 20.1013 7.47994 
24.3816 20.8726 7.41648 
31.4207 21.3568 7.6623 
31.5503 21.5358 7.28265 
33.0018 21.2981 7.56467 
22.2073 22.5046 7.36509 
34.0188 22.7248 7.16421 
35.8221 22.6274 7.01768 
22.3135 23.8719 7.25453 
37.6021 9.97133 8.04223 
27.7626 17.5412 8.19723 
28.0017 18.0829 7.80575 
27.0193 18.4872 8.02212 
25.7992 19.0708 8.15606 
25.4284 20.072 7.96235 
31.2815 21.1646 8.0701 
34.5404 21.5147 7.86975 
22.1453 22.5468 7.9557 
20.884 23.3565 8.23734 
22.2481 23.9287 7.82251 
26.9859 16.8126 8.80718 
24.1461 19.2532 8.68373 
23.182 20.0699 8.65023 
31.075 20.8866 8.79073 
22.2133 21.0752 8.56136 
32.4227 21.7327 8.81608 
34.7811 19.9346 9.4624 
33.1243 21.209 9.95871 
28.3547 17.0416 10.7505 
28.3478 17.0428 11.3043 
29.3259 16.1535 13.2281 
30.1686 15.051 14.0453 
25.9274 22.3628 0.61724 
27.1834 22.2737 0.476267 
25.3914 22.9798 0.462712 
31.7298 22.7125 0.493273 
32.2644 23.0336 0.360446 
32.6009 23.26 0.635618 
33.2824 23.6447 0.499185 
29.7943 24.1218 0.527348 
30.1299 23.8787 0.482367 
34.554 24.0565 0.497536 
25.8432 22.3628 1.09446 
26.5577 21.8694 1.12463 
24.8568 22.8892 1.04474 
31.6844 22.7448 1.05253 
23.9227 23.3422 1.11286 
32.341 23.1151 1.09255 
22.8509 24.1753 1.21117 
34.0114 23.9798 1.07488 
34.6356 24.0606 1.07218 
38.533 17.5531 1.83636 
26.517 21.8988 1.76296 
24.6258 22.7904 1.74719 
25.7517 22.4926 1.75451 
31.2827 23.037 1.80072 
32.3659 23.0967 1.79436 
36.6572 22.972 1.84339 
30.4562 23.6388 1.75314 
32.3538 23.1057 1.45281 
33.1922 23.6118 1.72139 
35.6249 23.7781 1.82177 
36.5102 23.1413 1.57368 
22.8155 24.2087 1.82971 
30.0049 23.9675 1.6881 
26.4774 21.9273 2.3842 
24.5927 22.8142 2.39992 
25.6379 22.5614 2.23792 
32.3886 23.0798 2.43418 
30.8871 23.3247 2.43754 
35.6416 23.7697 2.2823 
29.9736 23.9899 2.38847 
33.5643 23.8073 2.42352 
34.5782 24.0578 2.42261 
24.6124 22.7992 3.09874 
32.4132 23.0616 3.12812 
30.9169 23.3027 3.10493 
33.1024 23.5773 3.16418 
36.4578 23.2094 3.32121 
33.8744 23.9369 3.20479 
25.2608 22.3275 3.71778 
24.4038 22.9515 3.82156 
32.4361 23.0446 3.77391 
33.1342 23.5781 3.79557 
35.6181 23.7795 3.87632 
36.4949 23.1553 3.69671 
22.6689 24.3434 3.84325 
35.2783 23.9068 3.79055 
25.1944 22.3754 4.88529 
25.2317 22.3484 4.43129 
24.3207 23.0114 4.51399 
32.464 23.0239 4.55869 
33.2492 23.6425 4.55351 
35.6808 23.7452 4.25227 
35.988 23.575 4.54521 
25.1697 22.3932 5.18708 
25.9709 21.8095 5.28149 
24.3147 23.0191 5.2213 
32.4907 23.0041 5.31362 
36.8612 22.6345 5.11766 
33.3433 23.6898 5.28466 
22.6056 24.4228 5.26791 
29.8954 24.0454 5.23001 
34.587 24.0344 5.30765 
24.4517 20.7996 6.2091 
23.5363 21.5816 6.1377 
26.7071 21.2733 5.63859 
22.9372 22.177 6.13184 
25.0192 22.3656 5.79028 
25.7943 21.8715 5.83243 
24.3509 23.0974 5.68935 
31.2663 23.0472 6.00138 
22.2042 23.3856 6.06603 
32.6853 23.2893 6.03147 
35.9999 23.6311 5.88793 
21.603 24.2705 6.0308 
33.5199 24.0455 6.11111 
34.5848 24.1288 5.94616 
26.9957 18.847 6.83542 
26.2172 19.4628 6.635 
25.3507 20.1304 6.77552 
24.4207 20.8243 6.72464 
23.4248 21.5167 6.67189 
22.6589 22.1594 6.59581 
33.0319 22.7686 6.8951 
35.9396 22.8272 6.89198 
32.8706 23.6183 6.43394 
34.001 23.368 6.8562 
33.4814 23.8927 6.46237 
35.4087 24.0346 6.4588 
27.0395 18.8187 7.41121 
27.6799 18.3241 7.51489 
29.2714 18.5557 7.50154 
26.2078 19.4707 7.40709 
23.3932 21.5623 7.38548 
33.0874 21.235 7.61404 
22.6267 22.182 7.30606 
32.342 22.0205 7.26551 
35.2564 22.5996 7.21576 
22.1651 23.4593 7.46468 
27.0041 18.6775 8.0083 
27.596 18.4003 8.01623 
29.2509 18.5002 7.97282 
26.2037 19.4266 7.91586 
35.8525 19.1012 8.06743 
25.3497 20.1324 7.96084 
24.3364 20.8378 7.95395 
33.1545 21.1857 8.0697 
21.5522 21.9716 8.36803 
22.2655 22.0478 8.08228 
22.1359 23.463 8.07845 
27.0443 17.0013 8.69306 
25.4284 18.5223 8.55806 
29.346 18.6232 8.72201 
24.2477 19.3422 8.60352 
23.3074 20.1524 8.56683 
35.1351 19.6359 8.58759 
21.628 23.4054 8.48757 
20.9552 21.9058 9.31228 
28.4123 17.1461 10.1046 
20.5508 21.6311 9.81843 
28.4668 17.124 10.7796 
28.4443 17.1056 11.3381 
29.6537 16.643 12.458 
26.2527 22.2789 0.590666 
25.5083 22.8827 0.477684 
32.3519 23.0373 0.435668 
36.6302 23.0024 0.499617 
24.0706 23.2215 0.429602 
24.5793 23.5745 0.366599 
29.985 23.9805 0.539096 
21.9349 25.1186 0.33461 
27.0477 21.4928 1.04171 
25.7643 22.3762 0.900721 
26.4942 21.914 1.2599 
25.6301 22.5492 1.10888 
32.521 23.0465 1.03058 
23.3781 23.7458 1.21236 
24.0248 23.2587 1.00316 
33.2237 23.6273 1.05696 
35.6772 23.7507 0.926932 
35.8695 23.6349 1.0949 
22.7107 24.2905 1.20409 
30.1271 23.8776 1.01188 
27.0617 21.4213 1.79862 
26.4738 21.9281 1.82468 
24.8317 22.7804 1.74553 
31.5748 22.8221 1.80815 
23.3895 23.7304 1.83146 
24.0134 23.2641 1.65924 
31.012 23.2316 1.75798 
32.5808 23.1592 1.72945 
22.6465 24.344 1.75286 
33.5727 23.8106 1.41002 
33.9978 23.9717 1.74474 
34.6193 24.0623 1.80336 
26.952 21.1972 2.4716 
25.4843 22.1808 2.62059 
24.7664 22.6979 2.45698 
31.7653 22.8133 2.41049 
24.0466 23.222 2.43711 
32.7775 23.3 2.52421 
33.2399 23.5928 2.40759 
29.8484 24.0787 2.38788 
30.2147 23.8113 2.21006 
26.2112 21.6336 3.15647 
26.9425 21.1001 3.18486 
25.4703 22.1731 3.21068 
31.2376 23.0676 3.23121 
32.336 23.065 3.13486 
24.0331 23.2196 3.17325 
32.6907 23.2859 3.12698 
33.2659 23.67 3.17366 
36.2599 23.3605 2.99473 
26.2803 21.582 3.80748 
26.984 21.0696 3.90255 
25.469 22.1739 3.79324 
32.4268 23.0492 3.89621 
23.4099 23.7122 3.75575 
24.0192 23.2312 3.81835 
30.8404 23.356 4.00653 
33.2394 23.6352 3.81602 
35.8195 23.6694 3.80962 
26.3133 21.5577 4.5174 
27.0247 21.0396 4.60707 
25.5065 22.146 4.5195 
24.909 22.5807 4.57213 
31.8057 22.6525 4.55213 
23.3681 23.7557 4.50708 
24.0843 23.1877 4.56733 
33.138 23.5836 4.50832 
35.9463 23.62 4.53677 
22.5773 24.435 4.60875 
33.5765 23.8081 4.44271 
27.081 20.9982 5.57978 
26.3459 21.5337 5.21843 
27.057 21.0159 5.16396 
25.4854 22.1615 5.25601 
31.386 22.9578 5.29164 
31.8789 22.6143 5.22199 
32.534 23.0466 5.11349 
23.3748 23.764 5.27796 
24.1088 23.1866 5.26385 
32.6669 23.1807 5.33092 
36.0787 23.6284 5.26251 
22.558 24.4519 5.26581 
29.9863 23.9769 5.29447 
26.0597 19.581 6.20374 
26.4484 20.1314 5.87316 
27.4616 19.871 6.0876 
25.6909 20.5323 5.93536 
23.6491 21.6229 6.08889 
26.3653 21.5193 5.63659 
29.3774 21.4152 6.17683 
22.9071 22.242 6.10116 
22.063 22.7719 6.15742 
24.9765 22.5319 5.74485 
31.4042 22.9447 5.8948 
31.9133 22.7623 5.98194 
23.3399 23.7987 5.73958 
33.3154 23.6868 5.7921 
35.6098 23.7829 5.82509 
36.2195 23.5029 5.91574 
22.4967 24.4575 5.73183 
26.1306 19.5277 6.66871 
26.9032 18.919 6.6082 
28.2783 19.2743 6.59734 
29.8491 20.4401 6.63429 
30.8163 20.5537 6.9895 
23.4706 21.457 6.58985 
31.814 22.7577 6.54029 
33.2337 22.9205 6.88378 
33.9952 23.4345 6.81939 
34.5456 23.5894 6.78626 
36.2013 23.5527 6.42802 
21.9658 24.1272 6.55976 
35.4172 23.9809 6.48316 
26.978 18.8627 7.30865 
27.7698 18.2496 7.38471 
29.1852 18.6155 7.34653 
26.1522 19.5117 7.35733 
30.9265 20.6968 7.4539 
23.4704 21.4645 7.27353 
33.2328 21.1719 7.63736 
32.0677 21.9756 7.34038 
34.0354 21.8775 7.57916 
34.0733 22.6862 7.20202 
27.8105 17.868 8.10093 
29.0005 18.1698 7.81232 
25.6787 18.8301 8.31031 
26.8931 18.6266 7.98194 
29.1679 18.3899 8.0412 
26.178 19.4688 7.86916 
24.406 20.8204 7.96202 
31.089 20.9075 8.13795 
23.4717 21.4695 7.94804 
22.2811 21.9598 8.14696 
22.8345 22.0294 7.8313 
21.8757 22.7656 8.00316 
24.9337 18.0438 8.89523 
24.117 18.5302 8.96728 
29.2743 18.5274 8.70048 
24.6281 19.2793 8.5002 
23.4595 20.0476 8.55797 
34.4541 20.1666 8.86002 
22.4799 20.5237 8.68475 
34.1418 20.3992 8.65958 
21.4538 21.1599 8.7537 
31.2511 21.122 8.80992 
32.2884 21.836 8.83248 
21.7492 22.8793 8.59651 
28.853 17.3001 9.71795 
35.2293 19.6502 9.62575 
33.0056 21.2958 9.39122 
28.9236 17.3108 10.2577 
34.5401 20.1475 9.98809 
29.0235 17.335 10.9894 
30.4296 17.3899 11.0152 
29.1018 17.3575 11.55 
28.8368 16.5272 12.3526 
29.035 16.1463 13.105 
30.3744 16.2651 12.8501 
29.815 14.4945 14.8681 
27.6459 22.2512 0.389231 
28.8574 23.0154 0.423345 
32.0598 22.848 0.532211 
24.6905 23.4827 0.35365 
30.3888 23.6857 0.475122 
22.4815 25.2896 0.412417 
27.3207 21.3485 1.11983 
26.3369 22.1293 1.0872 
28.8951 23.0663 0.758095 
32.3092 22.9796 1.08041 
23.4756 23.6748 1.15055 
28.9488 23.1387 1.23471 
22.7356 24.2732 1.19793 
27.312 21.305 1.75606 
26.313 22.0436 1.80843 
25.6055 22.6208 1.78862 
31.4584 22.9066 1.56749 
32.2503 22.9912 1.7671 
23.515 23.6334 1.68064 
29.0161 23.2297 1.83296 
32.9877 23.4837 1.78469 
33.5564 23.8029 1.66471 
34.0976 24.0114 1.82914 
26.9462 21.2543 2.42144 
26.1829 21.8954 2.47328 
32.2416 22.9805 2.50122 
23.5485 23.5924 2.45571 
29.0941 23.3351 2.52595 
30.3993 23.6767 2.39899 
36.1163 23.5096 2.37756 
34.089 24.012 2.50418 
35.3634 23.8806 2.39042 
27.1372 20.9574 3.2217 
26.8483 21.168 3.21943 
24.3882 22.9594 3.23382 
32.2567 22.9995 3.17033 
23.5433 23.5964 3.21628 
29.1671 23.4336 3.17374 
33.5567 23.8303 3.16918 
27.1494 20.9483 3.83505 
25.3226 22.2786 3.85783 
31.58 22.8167 3.80682 
32.2858 23.0031 3.85379 
23.56 23.5907 3.8492 
29.2353 23.5257 3.77984 
33.0013 23.4991 3.85196 
33.5595 23.802 3.84992 
27.1644 20.937 4.58871 
26.8783 21.1455 4.60268 
24.4164 22.9385 4.51258 
32.299 23.0047 4.57255 
23.5623 23.5996 4.51809 
29.3128 23.6304 4.4679 
32.9948 23.4977 4.54081 
34.0845 23.9947 4.55136 
26.9156 21.1181 5.28502 
26.0415 21.7549 5.23749 
24.4419 22.92 5.25965 
32.3268 23.019 5.24988 
23.5805 23.5968 5.18861 
29.3744 23.7136 5.01537 
29.4339 23.794 5.54403 
33.0114 23.5061 5.22416 
22.7608 24.2632 5.19954 
33.5652 23.8018 5.24214 
34.1093 24.0022 5.25006 
26.1731 19.5223 6.16612 
26.803 19.1058 6.11472 
25.6003 19.9426 6.19809 
27.5593 19.7978 6.08238 
24.8544 20.6036 6.11675 
26.3599 20.4302 5.79578 
27.1881 20.9192 5.77998 
27.7645 20.8259 5.76589 
29.2695 20.9015 6.28338 
25.5042 21.0074 5.82401 
23.4436 21.9801 6.06703 
25.1036 22.2721 5.81868 
24.4023 22.965 5.78406 
29.403 23.0988 5.74709 
31.6401 22.8192 5.93483 
32.3331 23.0188 5.88448 
23.5206 23.6529 5.67296 
32.5393 23.3154 6.15048 
33.0366 23.6073 5.93722 
22.2141 23.9354 6.07054 
22.6955 24.3134 5.68574 
33.5408 23.9674 5.98835 
34.0869 24.1023 5.93491 
27.0975 18.7622 6.69669 
29.547 18.8897 6.99594 
28.3979 19.1865 6.65206 
25.5939 19.9399 6.62148 
25.9008 19.703 6.82198 
24.8814 20.4762 6.65556 
24.1519 21.0369 6.71691 
22.33 22.3943 6.6863 
30.7465 22.55 6.38802 
32.4011 23.017 6.57735 
33.0687 22.8105 6.91862 
22.4034 23.794 6.95806 
33.2811 23.4655 6.63722 
34.0894 23.4321 6.83027 
34.6699 23.5365 6.81541 
22.1795 23.9644 6.59316 
35.3467 23.9638 6.507 
29.5522 18.8887 7.31769 
26.2415 19.4417 7.3385 
26.7865 19.017 7.35051 
28.524 19.0977 7.03103 
29.5616 18.9002 7.63942 
25.9115 19.6951 7.33661 
24.8993 20.4761 7.38649 
31.0565 20.8638 7.31804 
23.378 21.5806 7.45366 
24.1709 21.0267 7.40403 
33.405 21.2827 7.63447 
22.3415 22.384 7.35386 
23.2764 21.7036 7.28433 
34.1601 22.033 7.52889 
35.1457 22.0034 7.48889 
34.803 22.7698 7.20673 
22.2743 23.6058 7.54852 
22.4022 23.779 7.29249 
26.3206 18.144 8.37542 
26.7114 17.795 8.38542 
25.7414 18.7093 8.34034 
27.0386 18.6784 7.91341 
29.5758 18.9175 8.1256 
35.4795 19.3722 8.20525 
25.9224 19.6872 7.8553 
25.0565 20.3539 7.88109 
23.3834 21.5796 7.96678 
24.0025 21.168 7.97938 
34.5127 21.6044 7.83543 
22.2404 22.164 7.9946 
22.2501 23.5941 8.02733 
27.3103 16.1239 8.99888 
25.7164 17.1464 8.85936 
27.5205 16.9638 8.52736 
25.4095 17.6655 8.977 
24.0006 18.6834 8.97495 
24.3542 19.4633 8.50591 
29.5949 18.9409 8.78194 
35.4047 19.4346 8.81717 
22.4593 20.7059 8.62312 
21.3064 21.2869 8.73934 
21.4078 22.8118 8.82522 
21.7718 23.3195 8.45791 
27.1501 15.6224 9.5708 
31.1158 20.7334 9.26747 
21.0668 21.2078 9.4017 
27.1474 15.6259 10.2505 
29.0091 17.3334 10.1989 
27.1737 15.6547 10.7919 
30.3479 17.4361 10.9777 
30.181 16.669 12.3193 
28.9295 16.2768 12.8642 
29.8124 16.3197 13.0039 
25.529 22.7922 0.52206 
26.996 21.5394 1.22821 
26.9821 21.5119 1.76929 
24.3953 22.9617 1.6596 
25.5432 22.6754 1.81089 
32.9504 23.4658 2.48394 
24.4169 22.9375 3.25893 
30.3865 23.6855 3.1548 
22.7845 24.2341 3.22513 
32.2506 22.9915 3.84319 
23.61 23.5502 3.88035 
30.3985 23.6764 3.89814 
32.9537 23.4719 3.85915 
34.7127 24.0263 3.78963 
23.627 23.5476 4.52176 
22.8134 24.2113 4.54085 
27.1683 20.9339 5.36168 
23.6491 23.5411 5.15883 
32.9641 23.4795 5.22297 
22.8284 24.2003 5.17745 
26.2299 19.493 6.14732 
27.6082 19.7612 6.07977 
24.9282 20.4833 6.14361 
23.3462 21.8521 6.15612 
22.2491 22.4979 6.25976 
24.4279 22.8987 5.83142 
23.6109 23.5799 5.63965 
32.4217 23.2738 6.22202 
32.9808 23.5914 5.96624 
36.059 23.6054 5.89324 
26.7862 19.0137 6.62962 
28.4577 19.1425 6.67942 
25.7438 19.824 6.55117 
32.3421 23.0525 6.54177 
35.5669 23.018 6.94199 
22.2864 23.883 6.60986 
28.0928 18.0039 7.52357 
34.2225 22.1108 7.50375 
35.094 21.9747 7.51681 
34.191 22.8152 7.15151 
25.5148 18.9573 8.31709 
23.3392 21.6347 7.97615 
32.8068 21.4368 8.13806 
22.2269 22.232 7.94381 
22.3072 23.6596 8.00178 
25.8052 17.254 8.89891 
26.2535 16.9824 8.95013 
27.6033 17.0039 8.46745 
25.3705 17.7366 8.95645 
23.9424 18.76 8.97879 
22.788 19.4049 9.00381 
24.4075 19.5239 8.4571 
22.449 20.797 8.5923 
21.3998 22.9322 8.87465 
27.115 15.5861 9.56536 
29.0281 17.339 9.74497 
35.4232 19.4777 9.4287 
31.1264 20.8481 9.22221 
21.0378 21.2566 9.38613 
27.1578 15.6432 10.8306 
29.0937 17.3471 10.7641 
29.112 17.3562 11.3924 
28.8832 16.6286 12.1325 
28.8768 16.342 12.7438 
29.9401 16.3427 12.964 
25.6834 22.6656 0.489923 
32.451 23.0534 0.467594 
24.9091 23.3525 0.336931 
35.9782 23.5866 0.531416 
22.6613 25.1376 0.429624 
26.8638 21.6401 1.13801 
27.9782 21.8164 1.21535 
24.7535 22.8164 1.12534 
22.8929 24.142 1.1777 
26.8649 21.6266 1.75708 
26.2551 22.085 1.76966 
27.9927 21.8302 1.6908 
32.4551 23.0279 1.8063 
30.5159 23.592 1.80797 
35.8769 23.6419 1.81377 
22.9091 24.1281 1.87455 
26.3279 21.5533 2.652 
26.807 21.4671 2.37104 
26.211 22.0159 2.32928 
28.0207 21.8605 2.45509 
31.7003 22.7319 2.37084 
32.4493 23.0208 2.53261 
35.8591 23.6506 2.50245 
22.9262 24.1135 2.55555 
26.2451 21.6074 3.21012 
26.6739 21.2946 3.22969 
28.0629 21.9157 3.19567 
32.4196 22.9985 3.28458 
23.8987 23.3156 3.21163 
30.5194 23.5887 3.21505 
33.1537 23.5989 3.21039 
35.8378 23.6637 3.20045 
22.9433 24.0993 3.21964 
29.969 23.9893 3.07282 
34.4953 24.038 3.15628 
26.6846 21.2865 3.85033 
25.5741 22.0946 3.86865 
28.1376 22.0308 3.78023 
31.6977 22.731 3.78619 
31.0899 23.1733 3.8487 
21.6155 24.3685 3.93453 
22.9587 24.0855 3.87401 
26.6928 21.2802 4.50562 
28.245 22.1998 4.48044 
31.0916 23.1717 4.49492 
35.6878 23.7447 4.56396 
35.894 23.6317 4.38655 
21.6326 24.3557 4.45219 
22.9762 24.0718 4.51928 
34.6079 24.0247 4.65597 
35.1145 23.9579 4.44495 
26.6883 21.2831 5.23965 
25.6189 22.0613 5.23463 
28.2771 22.2365 5.27003 
36.6651 22.948 5.197 
30.5376 23.5745 5.24821 
35.65 23.7765 5.33515 
21.6553 24.3389 5.13658 
22.9964 24.061 5.15449 
26.384 19.3524 6.15019 
25.5574 19.965 6.16952 
26.957 19.9437 5.80297 
25.7171 20.6748 5.88023 
26.2342 20.4939 5.80656 
28.3228 20.3705 6.08707 
29.8021 21.5383 6.29219 
22.7449 22.2254 6.18531 
22.9141 22.6885 5.92458 
36.6411 23.0061 5.80228 
22.1581 23.3321 6.00814 
36.1897 23.6519 6.07927 
21.6529 24.305 5.88825 
22.947 24.113 5.63942 
33.3733 23.9057 6.0539 
35.4787 24.0092 6.06429 
27.4349 18.4949 6.85198 
28.7937 18.8945 6.77492 
27.9262 19.5327 6.43731 
30.1048 19.6185 6.9905 
22.6182 22.184 6.72864 
32.3897 22.3521 6.89821 
31.1701 23.0193 6.42807 
35.9346 22.7097 6.93629 
21.9938 23.2211 6.56055 
32.6947 23.4079 6.42059 
33.2186 23.5444 6.59369 
21.5931 24.2215 6.42243 
33.361 23.8763 6.37361 
28.2332 17.896 7.55734 
27.5515 18.4174 7.38291 
28.9909 18.7574 7.2259 
25.4482 20.0522 7.38502 
30.1028 19.6147 7.44946 
23.4256 21.5108 7.4864 
31.4514 21.3968 7.38108 
33.2686 21.3006 7.59215 
22.6282 22.1763 7.43188 
32.324 21.8703 7.31149 
21.8977 22.9666 7.23914 
33.9926 22.8387 7.10424 
34.5998 22.7759 7.19917 
21.8011 24.2335 7.32158 
28.2206 17.9136 7.90119 
27.5229 18.4541 7.96589 
26.411 19.3083 7.87508 
30.0979 19.602 8.07093 
24.9325 20.4493 7.89765 
31.4109 21.3393 8.06857 
34.5027 21.6631 7.79615 
32.34 21.7774 7.98892 
21.853 22.9259 7.94841 
21.9412 24.2257 7.94215 
27.044 17.1965 8.57389 
28.0114 16.8313 8.7054 
24.8614 18.342 8.85586 
26.0141 18.2524 8.44822 
23.5349 18.9683 9.00915 
24.8165 19.2224 8.4566 
29.9285 19.3782 8.72985 
35.8051 19.1358 8.81067 
24.1438 19.7129 8.46174 
31.3819 21.2984 8.76328 
32.2985 21.8174 8.74035 
28.0484 16.8671 9.55485 
30.0381 19.4145 9.22276 
31.4432 21.3798 9.1554 
28.2148 16.9909 10.1121 
29.465 17.4543 10.2093 
29.4577 17.4331 10.8118 
30.4523 17.3765 10.9645 
28.2335 16.9725 11.3626 
29.4578 17.4373 11.4198 
29.0686 16.6874 12.137 
30.3033 16.6778 12.1866 
29.0153 16.3747 12.746 
30.3828 16.345 12.7298 
24.2924 23.0415 0.510799 
26.3027 22.4733 0.478108 
29.0775 23.3134 0.514745 
32.6492 23.2164 0.50727 
36.0402 23.556 0.602963 
24.3185 23.0216 1.07547 
25.4612 22.664 0.974691 
28.8981 23.0676 0.959632 
31.6986 22.7338 0.981955 
28.9601 23.1526 1.0688 
32.4663 23.1123 0.975679 
24.303 23.0333 1.7304 
28.6892 22.7753 1.93744 
33.231 23.5787 1.80464 
26.148 22.059 2.31218 
24.2925 23.0359 2.45753 
24.8754 22.6046 2.55782 
28.5466 22.5777 2.4599 
31.3724 22.9698 2.46726 
32.5527 23.2054 2.40643 
29.96 23.9961 2.44124 
25.7258 21.9839 3.30641 
25.9709 21.8059 3.15952 
28.265 22.1902 3.14631 
24.9337 22.5601 3.18849 
32.0022 22.8236 3.13259 
25.7655 21.9545 3.87774 
24.3184 23.0076 3.74894 
24.9262 22.5651 3.83458 
31.9471 22.7057 3.77323 
31.1211 23.1507 4.02374 
32.8522 23.3717 3.96014 
33.7344 23.8662 3.73689 
34.4197 24.0387 3.78179 
25.7427 21.9708 4.51251 
28.1108 22.0315 4.50394 
32.7468 23.2613 4.54144 
33.4086 23.721 4.51214 
26.4502 21.4561 5.31318 
26.6548 21.3072 5.16326 
27.7926 21.5823 5.38104 
25.7271 21.9817 5.18936 
27.921 21.7698 4.94127 
30.3439 23.7154 5.30968 
32.6526 23.164 5.16247 
35.8458 23.7279 5.21074 
29.6679 23.9672 5.23646 
26.7533 19.0929 6.16015 
27.0537 20.0203 5.8191 
24.1211 21.2789 6.12017 
26.468 21.4435 5.68242 
28.6038 21.1629 5.95384 
24.2545 22.9924 5.84008 
29.6482 22.8134 5.90127 
22.7286 23.1163 5.82297 
29.2484 23.1432 5.67843 
27.5326 18.4186 6.79692 
28.8671 18.8412 6.81531 
25.6608 19.8868 6.63499 
24.828 20.5073 6.57619 
29.6348 20.5407 6.52147 
30.5604 21.6806 6.49327 
31.3564 21.2611 6.96198 
32.3574 22.9809 6.63556 
35.5998 22.9555 6.95472 
32.5224 23.3043 6.42812 
33.1344 23.6075 6.49588 
35.3521 23.6676 6.69597 
22.1103 24.0553 6.64991 
29.8172 19.2344 7.63358 
30.1242 19.6398 7.36393 
24.0375 21.1308 7.37122 
31.327 21.2215 7.40553 
22.8902 21.9832 7.45796 
32.2889 22.0686 7.16607 
33.3145 22.2328 7.21826 
33.9724 22.09 7.43903 
28.4321 17.4026 8.15487 
28.3877 17.7831 7.81134 
26.2847 18.6294 8.15513 
29.8314 19.2479 8.15451 
24.3473 19.9721 8.26859 
23.4669 20.6773 8.26989 
23.9918 21.1714 7.82599 
31.2907 21.1719 7.97758 
33.9944 21.2089 7.83948 
34.751 21.4204 7.79447 
27.0842 17.3286 8.50248 
28.1948 17.0774 8.7719 
26.0686 17.7652 8.68686 
24.9706 19.1111 8.45212 
22.8167 20.0111 8.76772 
22.2028 20.9536 8.60464 
20.8983 21.4462 9.01349 
21.2957 21.4461 8.65588 
31.9722 21.9938 8.73277 
21.3634 23.2602 8.55862 
29.9002 19.2832 9.16786 
34.8436 19.8877 9.51938 
27.8785 16.6177 10.2737 
28.1226 16.9179 10.0305 
29.2471 17.394 10.1543 
31.8027 16.4958 10.9298 
31.7495 16.5354 11.3939 
29.8475 16.62 12.5289 
28.5455 15.5968 13.3538 
29.6651 14.8119 14.406 
27.7434 22.1603 0.375394 
25.5139 22.897 0.3954 
28.8468 22.9999 0.50492 
20.7433 23.965 0.46935 
21.8198 24.2183 0.68708 
24.1498 23.9435 0.400542 
34.0493 23.9944 0.542765 
27.55 21.3821 1.18931 
26.1027 22.2116 0.979059 
24.3461 22.9978 1.15058 
25.3771 22.7468 1.07832 
28.845 22.9951 1.00204 
31.9165 22.7118 0.96764 
23.5851 23.5897 1.17213 
32.6352 23.198 1.08514 
21.803 24.2303 1.1906 
27.525 21.3335 1.81863 
26.0531 22.2309 1.74018 
26.7654 21.71 1.85835 
28.7898 22.9178 1.72573 
31.9085 22.7114 1.68321 
23.5602 23.5912 1.76462 
32.6672 23.2065 1.71793 
33.3334 23.6457 1.80947 
22.8358 24.1841 1.76341 
34.9011 24.0213 1.70842 
26.7146 21.3305 2.55446 
27.6038 21.3201 2.46833 
26.7506 21.7192 2.3271 
24.9659 22.5365 2.57084 
25.2968 22.7669 2.2483 
28.7622 22.8781 2.40385 
31.8509 22.6981 2.31751 
30.4031 23.671 2.3883 
33.3184 23.6325 2.47638 
21.7602 24.2608 2.47642 
22.8258 24.1924 2.39896 
26.4202 21.4776 3.33633 
26.6509 21.3088 3.08999 
27.5909 21.3609 3.08911 
25.0115 22.5014 3.18304 
28.7355 22.8397 3.06091 
31.99 22.6997 3.19076 
31.0962 23.166 3.20505 
21.7396 24.2754 3.09456 
22.8294 24.1903 3.11582 
26.4789 21.4338 3.8917 
27.5596 21.337 3.83237 
28.6938 22.7797 4.08653 
28.7093 22.802 3.70486 
31.9656 22.6409 3.85504 
32.7348 23.2506 3.87629 
33.2658 23.6436 3.75532 
36.4432 23.2008 3.85077 
22.8005 24.2131 3.81352 
33.9789 23.9549 3.77158 
26.4722 21.4383 4.50607 
27.5151 21.2502 4.56126 
28.6732 22.7501 4.59202 
30.3064 23.7401 4.52857 
32.6862 23.1989 4.48325 
29.6124 23.999 4.51683 
27.5477 21.253 5.3167 
25.737 21.9723 5.22103 
24.3525 22.9852 5.21921 
28.6581 22.7916 5.22383 
31.0379 23.2075 5.18857 
29.568 23.9458 5.18505 
26.1989 20.0123 6.00451 
28.5013 21.1016 5.9351 
29.365 21.2955 6.20212 
28.6182 22.5881 5.60341 
29.5431 22.687 5.89247 
30.2524 22.6979 6.15347 
24.1729 23.1639 5.70883 
29.5125 23.7795 5.61151 
30.3314 23.7217 5.78113 
26.9992 18.838 6.54751 
28.1836 19.3421 6.48977 
29.2519 19.5651 6.66101 
25.9388 19.671 6.78435 
30.236 19.8123 6.97263 
30.419 21.4983 6.51249 
31.1077 22.9465 6.42233 
22.1963 23.5074 6.55274 
36.1095 23.6705 6.37242 
21.6114 24.3139 6.58382 
27.9554 18.1002 7.32197 
25.9284 19.6794 7.41627 
30.2338 19.7847 7.44136 
31.2514 21.1197 7.35462 
22.5675 22.2162 7.37043 
32.5712 22.177 7.1289 
33.7842 22.7829 7.0811 
34.5783 22.8042 7.18183 
21.5372 24.2635 7.30845 
26.706 17.951 8.32425 
27.8754 17.9963 7.99125 
26.8449 18.9705 7.81351 
30.2704 19.8298 8.14898 
23.6299 20.5299 8.27302 
34.1043 20.7677 8.10013 
22.6792 22.1364 7.96237 
32.0155 22.01 8.05261 
27.5706 16.4188 8.8456 
26.3497 17.01 8.91584 
24.0632 18.5813 9.01869 
29.1706 18.386 8.77017 
23.4317 19.2265 8.93705 
30.2518 19.8016 8.83441 
21.4785 21.3493 8.63938 
31.2323 21.0916 8.73157 
31.9657 22.0328 8.77669 
27.7399 16.4327 9.38799 
27.705 16.3976 10.182 
29.0961 17.3508 10.2298 
30.2661 17.477 10.4613 
30.2761 17.5778 10.0148 
27.714 16.4047 10.9035 
27.6172 16.2729 11.3674 
31.6618 16.6348 11.3027 
30.3162 17.4469 11.3622 
28.9575 16.4017 12.6878 
30.3067 16.4095 12.6852 
28.8801 15.8956 13.3993 
27.0814 21.4782 0.6693 
27.848 21.9965 0.425431 
28.7901 22.9212 0.540735 
29.2733 23.5837 0.503242 
31.0381 23.2085 0.447064 
33.4057 23.7029 0.540504 
20.6787 24.0127 0.424001 
21.8295 24.2106 0.565649 
23.7229 24.2661 0.335086 
26.2642 22.1718 0.948853 
27.976 21.8146 1.03299 
24.7573 22.7406 1.06796 
28.7853 22.9127 1.02019 
32.02 22.7458 1.02951 
29.1763 23.4498 1.00026 
29.406 23.7649 1.21064 
31.0584 23.1919 0.997629 
32.7142 23.249 1.07699 
33.4258 23.7095 1.05234 
29.9779 23.962 1.05258 
27.9952 21.8345 1.55206 
32.0371 22.7719 1.67187 
29.4258 23.7909 1.61509 
33.4507 23.7257 1.77409 
21.8189 24.2174 1.8227 
29.5922 23.9396 1.86963 
26.9157 21.2502 2.35011 
25.4861 22.2302 2.56944 
28.8032 22.9339 2.42264 
32.0654 22.8113 2.3725 
31.14 23.1327 2.39034 
33.4619 23.7325 2.46772 
21.8115 24.2225 2.41734 
29.529 23.8979 2.49329 
30.1978 23.8184 2.36352 
27.1404 20.9624 3.18331 
26.3422 21.5315 3.30279 
25.6055 22.0673 3.17655 
28.1285 22.0045 3.16467 
24.8668 22.6049 3.18615 
28.8255 22.9628 3.07838 
32.1308 22.8522 3.21669 
32.8277 23.3388 3.18887 
35.8913 23.6334 3.15315 
21.8196 24.2314 3.09004 
29.5477 23.9288 3.20731 
27.1593 20.9369 3.7836 
28.1373 22.0354 3.84253 
28.8464 22.9897 3.8047 
24.0957 23.1668 3.90622 
21.8052 24.2262 3.88806 
29.565 23.9588 3.89946 
25.6099 22.0631 4.59133 
28.9218 23.0916 4.44822 
31.3638 22.9687 4.61283 
32.2917 22.9932 4.55212 
29.1261 23.3726 4.63824 
36.4584 23.1853 4.56733 
21.8347 24.204 4.56786 
29.5812 23.9868 4.57111 
27.2056 20.9109 5.27308 
28.2102 22.135 5.31326 
24.8663 22.604 5.19582 
29.0646 23.2995 5.21693 
21.8672 24.2479 5.22854 
22.8255 24.2071 5.23553 
29.5941 24.0053 5.23002 
26.1474 19.8733 6.04193 
27.1441 19.9071 5.9494 
27.1917 20.6382 5.73329 
28.2635 20.561 6.00602 
24.2432 21.1077 6.10857 
29.2555 21.2499 6.17193 
29.0446 22.3745 5.79719 
29.6946 22.7003 5.94158 
31.6897 22.7375 6.05843 
21.9278 24.1463 6.02425 
33.7621 24.0372 5.97041 
27.0609 18.7852 6.588 
25.1566 20.2626 6.57423 
29.2586 19.9303 6.55608 
30.2414 20.417 6.77445 
30.9838 20.77 6.98118 
30.0316 21.6309 6.34656 
30.8636 22.0907 6.53878 
33.1714 23.5088 6.58542 
29.2894 18.6687 7.22799 
25.1754 20.2555 7.2198 
30.3093 19.8843 7.36222 
31.1997 21.0496 7.40332 
31.9209 21.9876 7.37993 
32.6403 22.2449 7.07797 
26.1281 18.571 8.24311 
29.4178 18.7104 7.91888 
25.0547 19.8665 8.02401 
23.4099 21.5052 8.058 
34.0721 21.4137 7.81161 
31.9497 22.0251 8.0867 
25.7962 17.2705 8.94924 
28.2668 17.1813 8.6917 
24.8199 18.4187 8.83204 
29.4528 18.7546 8.63503 
23.9764 19.3878 8.66734 
30.3588 19.9424 8.70551 
21.2422 21.3189 8.81333 
21.2113 21.9091 8.60911 
21.2009 23.265 8.64351 
26.864 15.2287 9.26167 
28.2586 17.0777 9.49545 
30.453 20.0004 9.19276 
31.3504 21.2522 9.14802 
26.8652 15.2384 10.0034 
29.5708 17.4801 10.1769 
30.953 17.1582 10.457 
33.7108 20.7324 10.269 
30.9837 17.0982 10.9674 
31.9912 17.9243 10.561 
33.0286 19.3497 10.5889 
26.8587 15.1347 11.3298 
29.5693 17.4622 11.323 
29.7639 16.8481 11.9339 
28.4641 15.8497 12.9897 
26.2847 22.264 0.386164 
32.0213 22.7325 0.565157 
29.3386 23.6738 0.499408 
23.1773 24.7139 0.409499 
27.9752 21.814 0.972196 
25.5572 22.5852 1.06479 
29.2844 23.5983 0.965991 
34.2199 24.0419 1.04725 
27.1015 21.3744 1.73318 
31.1195 23.1463 1.80284 
32.786 23.3075 1.80383 
34.2273 24.0361 1.65073 
34.4566 24.0409 1.86433 
27.0163 21.2101 2.24794 
24.0718 23.1952 2.44651 
32.8136 23.337 2.50334 
21.8285 24.2097 2.39764 
30.1936 23.8202 2.40188 
25.549 22.1078 3.12869 
24.0876 23.1715 3.12016 
28.8807 23.0367 3.82966 
32.8577 23.376 3.76475 
25.5734 22.0891 4.61199 
36.4815 23.1601 4.64869 
28.1934 22.1096 5.32406 
28.9872 23.196 5.26732 
30.3995 23.6687 5.19969 
22.8352 24.198 5.23151 
27.1935 20.4978 5.70995 
28.2338 20.6562 5.9655 
25.5893 21.9946 5.85326 
22.0831 22.8321 6.11925 
31.473 22.8876 5.78793 
29.6413 23.6927 5.67512 
33.002 23.6249 6.02167 
36.6134 23.1931 6.00661 
26.1247 19.5247 6.59661 
24.3026 20.91 6.57877 
31.0675 20.8781 6.97702 
32.3607 23.2227 6.37732 
33.7908 24.0231 6.47789 
28.2459 17.876 7.39644 
33.8546 22.142 7.37981 
26.1954 19.4714 7.79671 
25.0952 19.9082 7.97188 
30.3671 19.9584 7.99564 
34.111 21.5161 7.79767 
28.2908 17.216 8.66497 
24.7991 18.4571 8.82014 
23.9059 19.4073 8.67843 
35.3226 19.4906 8.82852 
21.124 21.3037 8.9003 
21.2775 21.8658 8.54122 
21.1467 23.2665 8.67181 
29.5828 18.6888 9.26154 
31.304 21.1884 9.14433 
29.606 17.4887 10.1661 
26.9264 15.251 10.7462 
29.6082 17.4689 10.8007 
32.0141 18.0578 10.5461 
32.9882 19.3538 10.5664 
26.9225 15.2554 11.2755 
28.3843 17.0759 11.4074 
29.625 17.4746 11.2745 
28.4257 16.4101 12.1432 
28.4589 14.9062 13.7975 
27.1298 21.4919 0.534596 
27.1712 22.285 0.371773 
24.0966 23.1939 0.538858 
21.887 24.1877 0.516132 
28.0595 21.9227 1.22883 
19.4308 22.412 0.926895 
24.8183 22.7387 1.06561 
26.4085 22.4202 0.71381 
28.78 22.9053 0.990051 
32.1076 22.8182 0.982561 
24.1079 23.184 1.01031 
29.4078 23.7675 1.06241 
32.8094 23.3328 1.08698 
33.4994 23.7608 0.931114 
35.9966 23.5746 1.07038 
21.9148 24.1906 1.02171 
33.5607 23.8013 1.32715 
26.3705 21.995 1.86223 
28.092 21.9593 1.83776 
19.4283 22.4086 1.64778 
28.8165 22.9536 1.7061 
32.1498 22.8732 1.69784 
24.1292 23.1662 1.73675 
29.4281 23.7943 1.50909 
32.8452 23.3673 1.82298 
21.9295 24.1916 1.75477 
26.3467 21.5331 2.5801 
19.4258 22.4054 2.35009 
25.5992 22.5849 2.2223 
28.8554 23.0051 2.48918 
30.288 23.7517 2.51405 
32.8564 23.3792 2.38241 
33.7353 23.8889 2.4735 
26.371 21.509 3.14118 
19.4234 22.4022 3.03784 
28.8843 23.0431 3.13297 
29.5205 23.9154 3.17735 
33.7859 23.9037 3.14802 
27.2457 20.964 3.7298 
27.31 20.9929 4.15466 
19.3363 22.2706 3.75402 
25.603 22.0676 3.8679 
28.9015 23.0655 3.68282 
31.394 22.9451 3.79349 
24.1448 23.1292 3.77201 
29.0396 23.2553 3.86412 
30.3413 23.7114 3.75979 
21.9304 24.1747 3.91551 
27.3934 21.0876 4.58254 
19.3656 22.3258 4.55915 
24.8903 22.586 4.60429 
31.6516 22.7731 4.62404 
32.5073 23.1524 4.60793 
21.9093 24.1547 4.57129 
29.5886 24.0064 4.54172 
27.4248 21.1113 5.22139 
19.3513 22.3179 5.36814 
24.2533 23.063 5.19231 
22.0003 24.258 5.22468 
29.6211 24.0497 5.19899 
26.2038 19.7862 6.04033 
28.3823 19.9827 6.2156 
27.571 20.8627 5.68874 
30.1061 21.8841 6.25665 
29.0895 22.7521 5.71871 
29.8136 22.898 5.93449 
29.8485 23.9305 5.69198 
26.2159 19.4537 6.5593 
28.3613 19.2163 6.68943 
29.5477 19.0932 6.90783 
25.4304 20.0573 6.56584 
29.3706 20.4979 6.43133 
30.2719 20.694 6.70669 
23.544 21.3897 6.65458 
30.9805 22.7543 6.42078 
28.379 17.7742 7.45708 
29.6697 19.0415 7.511 
30.4434 20.0601 7.25958 
23.5467 21.3877 7.41427 
33.2393 21.987 7.29178 
22.0123 22.6389 7.41981 
33.8207 22.6355 7.15641 
28.4646 17.6969 8.03754 
26.2526 19.4268 7.76291 
29.6991 19.0772 8.15063 
30.4972 20.1285 8.02243 
22.4757 21.2521 8.39719 
23.5557 21.3788 8.09035 
28.5884 17.6201 8.88248 
24.9127 18.4376 8.78392 
29.7422 19.1323 8.81477 
30.5212 20.1552 8.79212 
21.3426 20.8175 8.95201 
21.24 23.1858 8.6479 
28.4757 17.1778 9.53858 
32.5247 21.5647 9.54333 
32.1033 21.9868 9.18139 
27.3472 15.9027 10.2105 
29.8987 17.5652 10.063 
31.0741 18.058 10.0908 
31.9477 19.4732 10.0139 
33.8264 20.6662 10.3014 
27.4189 15.9971 10.9286 
28.8936 17.2896 10.8487 
29.8418 17.485 10.8899 
31.1701 16.9788 10.9368 
28.8947 17.2923 11.3082 
29.8111 17.487 11.4313 
31.2171 16.9299 11.3943 
27.3981 14.9203 12.2905 
28.8688 16.0005 13.245 
30.3624 16.0328 13.1631 
28.0907 21.9673 0.618515 
25.1797 23.0322 0.591195 
18.9062 23.3115 0.406721 
20.102 23.6448 0.437202 
24.2317 23.4644 0.436917 
21.3835 24.5781 0.492742 
22.2373 25.3985 0.478442 
27.1793 21.3889 1.10504 
26.1884 22.1787 0.962271 
28.0726 21.9383 1.15018 
19.6092 22.5453 1.06243 
21.0161 23.5502 1.1511 
33.3896 23.6808 0.986154 
22.0214 24.1815 1.0808 
29.7651 23.9987 1.05377 
34.4621 24.0485 0.966091 
26.1723 22.1366 1.78122 
28.0734 21.9322 1.77922 
19.6414 22.5692 1.72364 
25.0852 22.8309 1.72942 
21.0436 23.5863 1.74926 
29.1781 23.4477 1.78376 
33.3582 23.6571 1.73035 
22.0489 24.1897 1.78689 
29.5533 23.9592 1.75301 
25.1786 22.374 2.69832 
28.0651 21.9167 2.39343 
19.6724 22.5922 2.36054 
25.0592 22.6716 2.40437 
21.0764 23.6294 2.4652 
32.5932 23.2454 2.2975 
22.0483 24.2156 2.45012 
34.3957 24.0494 2.32888 
27.2221 20.9563 3.01384 
27.0928 21.103 3.23893 
25.1726 22.3785 3.12055 
19.7099 22.62 3.12818 
28.6956 22.7794 3.29489 
21.1077 23.6705 3.14661 
31.0175 23.2198 3.16236 
22.0741 24.2091 3.08848 
34.0764 23.9927 3.09271 
26.2128 21.6224 3.84445 
25.1685 22.3848 3.85722 
27.9938 21.8777 4.02787 
28.0894 21.9735 3.78122 
19.7462 22.6469 3.87347 
28.6833 22.7619 3.91388 
21.1438 23.7179 3.93272 
22.0645 24.158 3.82116 
34.0232 23.9674 3.76918 
27.2129 20.8866 4.51939 
26.2144 21.6212 4.46393 
25.162 22.3896 4.68572 
26.0724 21.7281 4.67191 
27.981 21.8674 4.46673 
19.779 22.6676 4.59989 
21.1729 23.7562 4.56802 
29.1934 23.4612 4.51505 
30.596 23.5253 4.65853 
33.0658 23.5376 4.6228 
22.0544 24.1076 4.51013 
27.9562 21.8091 5.13043 
19.8099 22.6851 5.31625 
32.2672 22.9875 5.24813 
21.1958 23.7863 5.06649 
23.5562 23.6078 5.18254 
29.1778 23.4438 5.2747 
21.4389 24.0691 5.30318 
29.5134 23.8986 5.2807 
28.3922 20.0934 6.18558 
25.4671 20.5277 5.9626 
28.2758 21.1747 5.84004 
29.1955 21.3031 6.12976 
29.6464 21.5469 6.22771 
23.3913 22.0009 6.03533 
28.9524 22.2133 5.80514 
29.9345 21.9455 6.17872 
19.7268 22.4772 5.74961 
29.1214 22.5763 5.77101 
30.2067 22.5629 6.16623 
31.9128 22.8387 6.01762 
32.3116 22.9783 5.81757 
29.7161 23.4369 5.76299 
30.6543 23.4371 5.91609 
33.0072 23.5882 5.94107 
21.3383 23.9619 5.92404 
27.5969 18.3633 6.76906 
26.3066 19.3842 6.60925 
28.9967 19.2487 6.81033 
25.2883 20.1633 6.54482 
29.5123 20.2433 6.55527 
30.2219 19.7797 6.9839 
29.7403 20.6017 6.5374 
30.4636 20.5131 6.84661 
30.4385 21.3922 6.54511 
31.9219 22.0523 6.97357 
31.0971 22.6296 6.49489 
31.9928 22.8447 6.50127 
32.6137 23.4283 6.38172 
33.2263 23.327 6.68851 
21.3546 23.9903 6.64231 
29.7897 19.1992 7.29805 
25.2558 20.1945 7.34368 
30.644 20.3166 7.34188 
31.0039 20.7893 7.43425 
31.6263 21.6333 7.4236 
22.5901 22.197 7.3584 
32.6887 22.1916 7.06534 
34.5975 21.8513 7.64436 
33.7945 22.5763 7.1734 
21.3924 24.0953 7.35842 
27.8685 17.1898 8.30095 
28.9654 18.1145 7.9596 
25.1456 20.0747 7.9847 
30.6326 20.3008 7.70007 
31.6405 21.6474 8.18107 
27.7588 16.5774 8.82771 
25.3226 17.9317 8.88028 
28.9273 18.0576 8.83962 
29.7858 19.1862 8.7424 
30.9658 20.7349 8.62967 
31.6162 21.6121 8.88388 
26.8441 15.2163 9.41856 
27.8685 16.6206 9.43941 
29.7428 18.7863 9.31852 
30.9563 20.6552 9.19094 
32.1831 20.6074 9.76 
20.785 22.0484 9.32036 
30.9967 17.2685 10.3897 
31.4162 18.3739 10.1381 
31.809 19.2783 10.0131 
33.8215 20.5174 10.6027 
27.7527 16.4602 11.4421 
28.124 15.9454 12.3894 
30.4643 16.4938 12.3913 
28.2849 15.7027 12.9398 
29.1074 16.4176 12.7141 
29.1188 15.9475 13.4249 
29.6682 14.7931 14.4994 
29.7658 14.5119 15.087 
18.1529 22.2611 0.498185 
20.2405 22.832 0.63263 
28.5143 22.5363 0.505156 
19.2468 23.504 0.408696 
24.2877 23.6071 0.450855 
20.5657 24.0204 0.385462 
21.2755 24.0718 0.462518 
22.0045 24.1557 0.558974 
22.7741 24.2277 0.569183 
23.5885 24.3694 0.36145 
27.734 21.5327 1.14321 
26.6882 21.7571 1.1471 
20.048 22.7437 1.09482 
28.5008 22.5164 1.01969 
32.1284 22.8398 1.13551 
29.1351 23.3887 1.05667 
21.2867 23.92 1.25035 
22.8083 24.201 1.02084 
34.384 24.0463 0.950644 
27.7173 21.5001 1.80719 
19.2099 22.1802 1.77216 
26.7036 21.7492 1.72026 
19.9675 22.7113 1.64852 
20.3104 22.8603 1.87207 
24.6504 22.8533 1.77861 
28.552 22.5856 1.76866 
21.3991 24.0552 1.84389 
27.7354 21.4798 2.46431 
19.2445 22.2085 2.41422 
25.5774 22.1605 2.58929 
20.3429 22.8734 2.4489 
33.0666 23.5259 2.38802 
21.4369 24.1263 2.43208 
34.0968 24.0014 2.38784 
27.7141 21.4982 3.10582 
19.29 22.2365 3.15994 
20.3827 22.8918 3.14439 
24.591 22.8006 3.18271 
28.5267 22.5464 3.27106 
32.0985 22.7928 3.09224 
29.0925 23.3249 3.12575 
21.3796 24.0428 3.11523 
29.5953 24.0156 3.21953 
27.6867 21.4955 3.77748 
19.3766 22.3382 3.80935 
20.4199 22.9056 3.81056 
28.512 22.525 3.88088 
32.0127 22.6823 3.7685 
21.4654 24.1597 3.85767 
26.7644 21.2221 4.62388 
27.6521 21.4282 4.53685 
28.3431 22.31 4.47345 
19.4645 22.4236 4.67125 
20.4604 22.9091 4.58371 
29.0707 23.2912 4.54021 
21.5047 24.1828 4.52377 
27.6282 21.3715 5.26405 
19.5101 22.4621 5.21343 
20.5159 22.9843 5.34399 
31.8743 22.6674 5.16048 
23.6074 23.5675 5.26964 
32.7678 23.2781 5.18134 
18.6216 19.4253 6.07844 
27.1967 19.8601 6.01013 
27.8987 21.088 5.73628 
20.3174 21.9043 6.10384 
22.8146 22.0977 6.21813 
25.5852 22.0034 5.84811 
28.6228 21.8801 5.77808 
19.5411 22.4819 5.61435 
20.6857 22.8425 6.02361 
22.8236 22.5853 5.9791 
24.7618 22.678 5.71629 
29.2198 22.5952 5.79852 
23.5889 23.591 5.71802 
29.8431 23.3898 5.82187 
32.6692 23.2995 5.9521 
21.4834 24.1748 5.92606 
29.7145 23.9021 5.64895 
33.4173 23.996 6.11726 
33.8447 23.9739 5.87284 
27.8214 18.1905 6.80998 
27.6646 18.4154 6.59356 
18.6782 19.4611 6.70344 
28.554 19.3428 6.52973 
29.6825 19.3437 6.88253 
20.1712 21.5176 6.469 
23.9538 21.1914 6.70293 
30.2938 21.3358 6.51705 
20.3824 21.8125 6.7866 
32.0445 22.1362 6.98458 
21.5062 24.2053 6.66186 
29.8741 19.3076 7.39322 
18.78 19.6248 7.39353 
30.6713 20.3517 7.41234 
23.9574 21.1894 7.30103 
20.4388 21.8895 7.35268 
33.32 22.5057 7.11471 
26.4457 18.1209 8.33378 
27.6526 18.3466 7.89705 
18.7512 19.7143 8.11084 
19.0482 20.146 8.07887 
30.6516 20.3244 8.02674 
23.9455 21.2035 7.85388 
31.3488 21.2483 8.12213 
20.452 21.9101 8.07734 
25.3495 18.5932 8.54733 
19.0996 20.4601 8.43069 
22.772 20.589 8.55288 
30.6438 20.3098 8.755 
20.5573 22.016 8.70084 
27.2081 15.7194 9.3841 
29.0762 18.013 9.22831 
30.5737 20.2105 9.15371 
32.0831 20.4806 9.76333 
32.5103 21.5722 9.61674 
20.6276 21.9611 9.26579 
27.1573 15.6479 10.1312 
29.2842 17.4014 10.1177 
30.4942 17.663 10.0461 
31.3057 19.1951 9.83412 
28.2288 17.017 10.885 
33.694 20.0903 10.5513 
29.6921 17.1721 11.6562 
28.4032 16.3319 12.2582 
28.7789 15.2302 13.8385 
17.9995 21.302 0.498167 
19.1015 22.0009 0.680077 
28.105 21.9868 0.509254 
20.1488 22.8031 0.607331 
24.9789 22.8665 0.556404 
20.8663 23.4561 0.613874 
23.7351 23.4678 0.556431 
20.2116 23.8933 0.423696 
20.7857 24.0094 0.391131 
21.4145 24.1806 0.465374 
22.1054 24.171 0.610342 
22.8238 24.1844 0.559691 
23.5308 24.4134 0.369021 
21.4843 24.6672 0.401964 
25.8006 22.3427 0.82949 
20.8685 23.3464 1.15891 
23.6782 23.5109 1.03942 
21.4918 24.2028 1.12349 
20.0417 22.745 1.66538 
20.879 23.3593 1.75463 
29.2247 23.5101 1.69306 
21.5117 24.2224 1.80918 
27.5357 21.2426 2.50409 
19.9895 22.7241 2.38878 
28.6211 22.6785 2.48412 
20.8912 23.3744 2.4485 
29.2174 23.4981 2.45471 
21.5405 24.2673 2.43913 
22.1803 24.2288 2.38783 
33.8457 23.9346 2.38361 
20.0133 22.7402 3.19377 
28.6283 22.6866 3.1752 
20.9049 23.3913 3.22486 
23.6994 23.4532 3.1185 
32.7409 23.2362 3.20412 
21.5321 24.2532 3.15132 
28.0675 21.9539 3.89961 
20.0023 22.7454 3.86578 
24.7212 22.7036 3.7933 
28.6164 22.6688 3.79252 
20.9177 23.4071 3.95137 
29.1698 23.4292 3.83928 
21.5591 24.2888 3.83985 
22.2029 24.1914 3.86385 
20.0533 22.7693 4.50845 
20.9298 23.4221 4.63999 
30.4266 23.6457 4.64759 
32.666 23.1886 4.62452 
21.5796 24.3094 4.55784 
22.2034 24.1813 4.58601 
33.7553 23.8652 4.6233 
28.1427 22.0541 5.19177 
20.0776 22.809 5.22747 
20.9414 23.4364 5.30073 
21.5723 24.3002 5.24871 
22.2107 24.2995 5.24335 
33.5821 23.804 5.4109 
28.2114 19.9907 6.1493 
24.4183 20.8185 6.19633 
25.419 20.6992 5.92826 
27.6403 20.6755 5.75649 
29.0322 20.8099 6.21782 
19.8484 21.1968 6.16398 
23.384 21.6168 6.21361 
28.3573 21.2249 5.85445 
29.5881 21.5305 6.20931 
19.2009 21.9691 5.70859 
19.9406 22.1082 5.88981 
23.964 22.0313 5.85344 
28.3556 21.8509 5.69707 
29.0452 22.123 5.85802 
30.164 22.0993 6.24385 
20.015 22.6325 5.75671 
23.1353 22.7262 5.83725 
28.9894 22.5644 5.72928 
20.9114 23.4245 5.95472 
29.6227 23.3145 5.7617 
30.9312 23.1851 6.09157 
22.2345 24.0333 5.90875 
27.5265 18.4508 6.58989 
29.6387 19.4051 6.84912 
18.7304 19.6103 6.82016 
25.5856 19.936 6.5826 
29.2163 20.0277 6.51138 
29.8423 20.7832 6.51951 
30.7217 21.7511 6.53813 
31.2251 22.6453 6.53769 
20.9432 23.4228 6.65134 
28.9666 18.1137 7.56561 
28.5627 18.8707 7.1561 
18.6974 19.4837 7.35766 
19.9905 21.2806 7.28372 
31.2894 21.168 7.42687 
31.9837 22.019 7.41595 
34.6665 22.8821 7.13653 
20.9639 23.4487 7.34885 
21.6067 24.3277 7.32924 
28.2682 17.1786 8.27163 
28.9615 18.1068 8.08685 
18.6919 19.432 8.03338 
18.8168 19.8918 8.15632 
25.6269 19.9091 7.89622 
20.0033 21.2971 8.06298 
21.6192 24.3441 7.89063 
22.2464 24.0132 7.86238 
26.3803 17.2797 8.79054 
25.0217 18.0891 8.90681 
28.9398 18.0749 8.78937 
22.7436 20.0286 8.80167 
30.4731 20.0875 8.80691 
19.0192 20.3957 8.50815 
20.0927 21.4037 8.67656 
31.9745 21.9941 8.82905 
21.5236 23.3129 8.54317 
29.0118 18.0489 9.1816 
30.1907 18.4313 9.62078 
31.1484 19.57 9.65818 
31.8463 20.5546 9.6499 
20.038 21.2717 9.5382 
20.761 21.4688 9.62829 
26.9874 11.4888 10.4384 
28.1549 16.9775 10.2003 
31.7088 18.512 10.2323 
32.5178 19.5992 10.2095 
28.155 16.9669 10.8906 
29.257 17.381 10.7449 
27.1663 15.6561 11.4646 
28.1703 16.968 11.4238 
29.2182 17.3757 11.3352 
28.3621 16.3017 12.2251 
27.5481 14.3409 12.8739 
28.4614 15.8092 13.036 
29.0701 14.4173 14.5789 
29.2325 14.279 15.1841 
26.9648 22.1844 0.409608 
28.1233 22.0097 0.593566 
24.8513 22.7814 0.618561 
19.1521 23.4529 0.382496 
19.8929 23.6813 0.424387 
20.7668 23.5938 0.532079 
32.8149 23.335 0.616229 
20.8598 24.0648 0.442555 
21.4765 24.2804 0.479836 
24.1636 23.9323 0.365598 
22.0306 25.3333 0.472997 
17.9816 18.5003 1.1379 
20.2188 22.8236 1.07087 
25.6694 22.5213 1.2352 
20.9252 23.4246 1.09696 
29.2638 23.5652 1.04974 
17.9618 18.5532 1.83951 
28.1261 22.002 1.63448 
20.2029 22.8137 1.78809 
24.7303 22.7074 1.81958 
20.934 23.4352 1.70687 
23.6342 23.5213 1.80033 
32.832 23.3493 1.69897 
34.0548 23.9892 1.8162 
18.0411 18.5001 2.56271 
25.7154 22.1965 2.51764 
19.5051 22.4621 2.43632 
20.1915 22.809 2.41467 
32.0108 22.6734 2.48989 
20.9506 23.4565 2.40618 
18.0106 18.5617 3.12943 
27.5006 21.2565 3.20297 
20.3311 22.8714 3.2069 
20.9615 23.4696 3.18693 
29.2423 23.5306 3.15464 
32.8202 23.3229 3.24662 
22.1545 24.1985 3.20295 
18.019 18.5731 3.85428 
19.5708 22.509 3.83286 
20.3413 22.8762 3.85294 
28.757 22.8633 3.81829 
21.5513 24.2786 3.79612 
18.0177 18.6236 4.62763 
19.5532 22.494 4.50994 
20.3597 22.8798 4.58194 
28.7783 22.8901 4.59994 
20.9745 23.4841 4.52053 
21.0869 23.6382 4.67749 
23.6411 23.5248 4.60329 
29.24 23.5241 4.53454 
33.9721 23.9442 4.64678 
14.9034 4.61877 5.15041 
18.0411 18.6054 5.34373 
19.5511 22.4931 5.07576 
19.7619 22.6464 5.2741 
20.3838 22.9363 5.29045 
28.8028 22.9266 5.16987 
21.0537 23.5915 5.17248 
29.2195 23.4953 5.27143 
14.9595 4.37526 5.66248 
18.0353 18.555 5.79407 
26.1505 19.7091 6.08184 
28.1948 20.0914 6.11405 
19.1373 20.4954 5.92487 
24.7834 20.6272 6.1651 
19.3124 21.2092 5.85235 
24.5056 21.056 6.02926 
25.4185 21.1772 5.78593 
28.445 21.3524 5.85172 
28.9966 21.1211 6.10905 
20.1724 21.9536 6.0401 
23.3056 22.1389 5.99813 
24.1207 21.8663 5.85293 
29.7116 21.8754 6.1433 
19.8102 22.583 5.69579 
20.4531 22.778 5.86632 
24.1435 22.6761 5.81407 
28.8999 22.6138 5.68706 
31.939 22.5977 5.89831 
21.0151 23.5504 5.92149 
22.8127 23.4127 5.80396 
29.517 23.3535 5.71438 
28.1054 18.0935 6.66359 
27.6357 18.6031 6.46498 
28.9561 19.155 6.74698 
28.5296 19.653 6.36712 
29.6016 20.1104 6.62829 
19.3459 20.3958 6.59711 
24.7587 20.5541 6.66549 
30.4522 20.655 6.787 
30.0135 21.4928 6.37801 
20.2882 21.7029 6.81316 
30.693 21.9811 6.4833 
31.0254 21.911 6.63501 
31.9609 22.5974 6.56449 
21.0446 23.5653 6.69957 
33.1705 23.2304 6.71176 
29.1593 18.5769 7.27763 
29.9601 19.4227 7.28277 
19.3664 20.4192 7.28624 
24.7271 20.5981 7.38445 
30.7405 20.4437 7.29835 
33.1624 21.404 7.4838 
20.296 21.7125 7.29088 
20.3703 21.8046 7.5005 
34.5426 22.0252 7.56307 
21.0643 23.594 7.42244 
28.3633 17.3108 8.23519 
26.3311 18.5762 8.18387 
29.2185 18.4447 8.00513 
24.9817 19.2877 8.36538 
29.9543 19.4094 8.01247 
19.3718 20.4525 7.98046 
24.7956 20.5489 7.90632 
30.732 20.431 7.98752 
33.8661 20.8734 7.9752 
20.3453 21.7745 8.11378 
21.1442 23.5881 8.11583 
25.5075 17.8272 8.86137 
29.9516 19.4037 8.74748 
22.8708 19.8806 8.83479 
19.2513 20.4613 8.61275 
30.7277 20.4222 8.71701 
20.6066 21.5392 8.93984 
