ply
format ascii 1.0
comment Created by CloudCompare v2.11.1 (Anoia)
comment Created 2026/6/3 下午10:46
obj_info Generated by CloudCompare!
element vertex 1896
property float x
property float y
property float z
end_header
30.6069 -1.52585 16.4019 
33.2442 -1.00287 16.6952 
26.9553 -0.319795 16.615 
27.4022 -0.517994 16.5648 
33.9519 1.10779 16.4244 
27.0572 -0.112367 16.9888 
33.9493 2.22537 16.9716 
33.0465 0.593495 17.8192 
26.1815 2.6973 18.1997 
33.8723 2.49144 17.8221 
30.5738 0.401422 18.7372 
32.731 2.47221 18.6557 
25.6794 3.27341 18.5917 
25.5915 3.71098 18.6388 
32.0395 1.04582 19.2697 
32.7882 2.52242 19.2667 
27.0538 -0.647906 20.205 
30.2138 -1.59514 20.3409 
29.7836 -1.04652 20.806 
30.1962 -1.09484 20.5167 
33.6208 -0.875933 20.7777 
32.0544 -0.344482 20.5768 
33.6307 -0.0299638 20.3425 
32.0165 0.247639 20.8992 
29.5168 -1.70072 21.2713 
26.9625 0.566679 21.118 
30.3673 0.408848 21.3869 
34.5792 2.97771 21.1888 
35.3079 2.95617 21.1824 
29.555 0.197699 22.114 
28.1686 1.19741 21.7599 
30.219 0.926233 21.868 
31.6599 1.14034 22.4917 
28.7892 1.92957 22.8413 
28.4712 2.25386 23.0416 
31.3919 3.10492 22.9559 
28.5463 2.17817 23.4845 
30.4241 2.32444 24.1441 
31.2554 3.12824 23.9768 
29.2034 2.72051 24.7173 
30.1814 2.64705 27.0832 
30.1031 2.67566 27.6327 
29.8487 -2.40866 4.6555 
30.5024 -0.342656 5.95011 
30.4898 -0.946493 6.81707 
33.0171 -0.323997 9.44813 
33.5352 1.06752 9.45932 
34.3478 2.73917 9.37627 
34.279 2.83373 9.82642 
29.7437 -1.13489 11.0094 
34.1682 1.5037 12.5431 
33.8734 1.91752 13.5792 
34.8831 3.00431 13.393 
33.0846 0.641352 14.4093 
33.9251 3.18082 14.3341 
30.6221 -1.05554 16.6021 
33.1655 -0.786571 16.9311 
33.55 1.40197 17.431 
35.3204 2.89347 17.2463 
33.4863 1.67332 17.805 
34.3848 3.00839 17.6446 
31.1002 0.572054 18.7228 
31.8324 0.903992 18.6714 
33.4034 1.5328 18.4064 
33.1554 4.16143 18.2134 
33.1492 4.62549 18.4169 
33.0476 5.76156 18.6996 
29.0905 0.268474 19.0908 
34.1441 2.9164 20.785 
29.8558 -0.170946 21.2314 
30.5806 0.840416 21.6532 
32.8003 2.9471 21.5857 
33.9394 2.98954 21.3329 
28.1621 1.2526 21.7795 
31.0584 1.50636 22.1791 
31.9079 2.46749 22.0239 
32.7166 3.08185 22.1186 
29.8391 1.9001 23.3856 
28.6247 2.23096 23.3946 
31.5656 3.19919 23.8223 
29.5973 2.52635 24.6628 
30.2542 3.51986 25.2104 
29.9677 3.01312 28.9847 
29.7138 2.99765 32.3663 
34.268 2.35872 5.79015 
30.3567 -1.00794 6.83578 
35.1449 2.56817 8.34653 
33.2398 0.390595 9.32988 
34.001 2.3701 10.2272 
33.9152 0.438269 12.4671 
34.0305 0.987322 12.53 
29.5955 -2.37794 13.0595 
31.0203 -0.970102 12.7487 
25.2902 -0.62257 13.841 
28.9604 0.149108 14.3893 
33.2272 3.13266 14.1597 
29.5983 -0.972459 14.9043 
33.539 0.413416 16.3593 
34.1146 1.8998 16.6084 
34.076 2.36784 16.6826 
28.2716 0.856677 18.0006 
33.2401 1.10388 17.8782 
32.6657 0.0626529 18.3822 
26.2661 1.23692 18.5876 
32.9213 2.79011 18.5139 
32.8348 2.63268 19.1225 
29.7636 -1.83753 20.5673 
30.9832 -0.518603 20.6252 
33.9404 1.64294 20.3847 
29.5412 -1.69222 21.1833 
31.9982 0.426023 21.4095 
32.7059 2.46219 21.3118 
33.7289 3.02243 21.3629 
30.1897 0.937989 21.8772 
28.3347 1.60303 22.1801 
31.7832 2.30044 22.0903 
29.7294 1.29319 22.7643 
31.5197 2.51326 22.4604 
31.3969 2.95941 22.8694 
29.6706 1.72537 23.9267 
29.9182 3.07662 26.4179 
29.3465 3.40121 29.6682 
30.4075 3.22141 29.7165 
30.1375 -2.20379 4.43665 
33.7698 1.00861 4.58275 
33.4557 -0.213256 8.79606 
33.9608 0.954197 12.555 
30.6326 -0.942496 12.8316 
30.9408 -1.05078 12.6841 
31.6308 -0.609725 13.017 
33.1561 0.285018 12.942 
33.7834 1.2505 12.6933 
29.4887 -2.32143 13.612 
31.5803 -0.593659 13.5402 
33.0323 0.278607 13.5958 
34.4896 3.20582 13.5812 
33.4993 1.70976 14.2207 
29.5109 -2.40139 16.719 
32.0643 -0.787342 16.5067 
33.5611 0.445584 16.4647 
34.3843 1.76223 16.3925 
34.1373 2.46198 16.704 
30.3953 -0.923406 17.204 
35.1782 2.9056 17.2709 
29.5753 -1.18086 17.5998 
28.1913 0.799688 18.0981 
30.1805 -0.771085 18.6383 
33.961 2.70334 18.6035 
27.7979 -0.721882 20.3598 
30.2832 -1.20205 20.4445 
30.9313 -0.573119 20.5963 
33.8235 2.39443 20.6625 
28.4438 1.56129 22.1893 
29.0123 2.42904 24.253 
30.3472 2.33174 24.1618 
30.4725 3.83517 29.3253 
30.5146 3.26217 29.5885 
34.1554 1.96644 1.22026 
35.1313 3.03167 1.21726 
30.0225 -1.21858 1.94464 
33.4324 -0.0949422 4.65977 
34.602 1.81281 8.49789 
34.6372 2.97743 9.26525 
33.3661 1.66039 10.0678 
30.4897 -1.59802 12.4579 
34.2302 1.72173 12.562 
33.7727 -0.220034 12.6309 
29.5751 -1.29325 13.5605 
27.6467 -0.360523 13.6 
30.4636 0.785233 14.3392 
29.8653 -1.90298 16.6258 
32.0018 -0.897574 16.4049 
33.9303 1.2011 16.4913 
34.079 1.85638 16.5957 
33.1179 0.523537 17.198 
29.8509 -0.97158 17.7742 
30.9405 -0.573224 17.7005 
33.0854 0.638918 17.7332 
33.1769 1.01106 17.8838 
30.6155 -0.615673 18.3971 
27.3672 1.08871 18.5186 
32.6862 2.36556 18.5339 
33.3978 3.31894 18.4071 
31.1795 0.596748 19.1154 
27.2588 1.17321 19.1439 
27.2187 -0.642161 20.252 
30.1902 -1.57174 20.3492 
32.4173 -0.378058 20.5727 
33.7189 1.13677 20.3696 
33.777 1.66265 20.4564 
33.4704 2.43621 20.8837 
31.0108 0.784092 21.5369 
32.5014 1.97269 21.2999 
32.5429 2.42392 21.4376 
33.2417 3.04595 21.4872 
32.2625 2.77391 21.8485 
28.1502 1.76357 22.5912 
31.1033 2.61846 23.061 
31.0635 2.97586 23.5328 
30.5994 3.79455 24.5251 
29.6854 3.05454 26.5471 
30.3851 3.6701 26.8746 
30.2321 3.74324 27.631 
30.1195 3.25838 31.8861 
30.1246 3.2497 32.3096 
25.6864 -0.391223 0.877768 
34.2067 2.19187 1.71333 
32.0105 -0.942035 4.4969 
33.1923 -0.345361 4.69732 
34.3528 1.24476 4.29406 
29.7988 -1.90199 8.78029 
33.4829 -0.11749 8.77652 
33.2692 0.780778 10.0255 
34.8774 2.18741 12.4952 
34.6992 2.91718 12.9749 
27.7441 0.388645 13.9644 
29.0601 0.104803 14.3694 
30.3129 0.137561 14.3996 
33.3903 3.33096 14.2216 
30.5454 -0.955193 16.6731 
27.034 -0.398016 16.5765 
34.7083 2.48392 16.5953 
33.7658 1.84781 17.2496 
30.4513 -0.745797 17.7774 
28.4033 -0.529974 17.7997 
26.2826 1.69107 18.0197 
26.2376 2.40236 18.1973 
32.5093 2.37239 18.1369 
33.1552 5.07091 18.549 
34.6088 2.19629 20.2118 
29.7479 -0.978288 20.7593 
33.4625 2.38845 20.8569 
34.5324 2.58336 20.534 
29.5691 -0.453925 21.4897 
31.031 0.415121 21.2313 
28.2925 1.16087 21.7618 
31.1546 2.52314 22.9331 
32.0841 3.10179 22.6651 
29.9228 2.3987 24.4041 
33.7952 -0.198177 4.51418 
30.393 -1.15885 5.7476 
33.799 -1.20269 8.91216 
33.3928 0.465132 8.78489 
34.8645 2.63925 8.74471 
35.043 2.36393 8.57304 
30.2826 -1.18594 9.69141 
32.5823 -0.127512 9.96378 
33.266 0.768256 9.94231 
31.8011 -0.418686 10.5971 
29.6541 -1.92811 13.0044 
30.2377 -1.22145 12.8349 
30.9851 -0.946054 12.7495 
33.4597 3.41385 14.2684 
29.8133 -0.977972 14.8659 
33.7613 2.01324 14.8298 
30.6474 -0.879906 16.6739 
35.6258 2.95365 16.6292 
33.7334 1.77886 17.2639 
25.4324 -0.445498 17.8008 
27.6928 0.121071 17.9511 
26.4294 1.72095 17.9771 
26.2657 2.2549 18.1961 
31.0473 0.561878 18.592 
30.1623 0.241232 19.1972 
30.8676 -1.20384 20.169 
29.9386 -1.53979 20.5063 
31.6109 -0.804969 20.3268 
26.4388 -0.165286 20.588 
26.8474 -0.356035 20.3829 
32.0635 0.183653 20.8561 
32.5412 1.7869 21.2095 
32.4118 2.39702 21.5372 
33.3085 3.03752 21.3942 
29.7727 0.603537 21.8748 
30.5689 1.24686 22.0192 
27.9429 1.60681 22.279 
28.0594 1.59315 22.0247 
30.9982 2.92795 23.9909 
29.8323 2.6234 24.7804 
31.409 -0.994421 4.6276 
25.345 0.631269 4.52175 
32.5183 -0.463396 5.10491 
32.4527 -0.517621 8.79335 
33.8533 0.97882 8.62293 
32.0147 -0.523037 9.29431 
34.2311 2.4885 9.17644 
33.7621 -0.196436 12.6475 
33.6209 0.395202 12.6451 
30.3688 -0.789776 14.8474 
33.4788 1.07241 16.3941 
34.0957 1.76798 16.5471 
26.2175 1.27706 18.6099 
28.0635 0.737323 18.5197 
33.2236 1.15228 18.4628 
33.0983 3.00731 18.4972 
29.6614 0.0940426 19.1797 
28.1161 0.85697 19.1149 
34.1473 1.59849 20.1816 
29.7928 -1.67703 20.5668 
33.6244 -0.231087 20.4248 
33.389 0.621086 20.4692 
33.2796 1.10365 20.6349 
33.1509 1.67432 20.8021 
33.974 2.36249 20.5858 
34.0461 2.9718 20.841 
29.8088 0.173535 21.5844 
31.7189 0.552836 21.2104 
30.5458 0.796942 21.6528 
32.1214 1.65658 21.5209 
33.0549 2.08858 21.0289 
32.9271 2.64948 21.2474 
33.8486 3.03075 21.3951 
31.8158 2.38255 22.0707 
28.3371 2.00438 23.3478 
29.7797 1.91562 23.3336 
31.5774 3.21363 23.8417 
30.4128 3.05204 24.7314 
30.1316 3.63348 28.0248 
31.1619 -0.969968 1.57607 
34.0082 1.77858 1.69243 
34.4216 1.77396 4.40335 
29.7756 -1.79318 8.79036 
29.4552 -2.55413 9.6599 
31.1001 -0.869705 9.16074 
33.2347 0.422263 9.40346 
33.9785 1.98567 9.45416 
33.0262 -0.962974 12.7909 
32.8449 0.144527 13.8545 
34.3645 3.59279 13.7175 
28.4352 -0.651702 14.1798 
33.4084 3.26767 14.1981 
27.6043 -0.613785 16.6009 
33.8736 0.977209 16.464 
25.961 -0.251494 16.9524 
32.6643 2.44726 18.1533 
29.5937 0.0686077 18.5681 
30.4556 0.337661 18.5823 
27.5992 0.980571 18.4917 
33.9372 2.97673 18.7663 
30.4355 0.343994 19.1347 
31.1954 0.631136 19.0261 
29.4981 -2.38304 20.8167 
31.8416 -0.804483 20.3186 
33.4317 0.551215 20.4502 
33.3286 1.06538 20.597 
33.2141 1.76572 20.8073 
34.0841 2.42533 20.5704 
28.2476 0.470057 21.2205 
32.4481 1.14239 21.1924 
32.3083 2.268 21.5723 
33.0257 2.61121 21.1813 
33.1888 3.00884 21.3825 
34.0023 3.00644 21.3445 
31.9654 2.46393 21.9687 
29.5651 0.883067 22.8374 
27.8568 1.57626 22.5811 
28.9755 2.04949 23.1612 
31.0726 2.71153 23.2074 
31.0126 2.94593 23.9826 
29.7837 3.22659 27.4934 
33.8128 1.18806 1.05995 
34.9452 3.04975 1.2371 
34.1943 0.457364 4.15366 
33.4434 0.193855 4.63551 
34.2391 1.73463 4.47323 
34.4127 2.57337 5.22348 
29.7633 -1.2359 6.80391 
33.9032 -0.342667 8.67181 
34.0102 2.34122 10.0503 
29.9457 -1.80884 12.7553 
29.7535 -1.3046 12.9938 
32.9695 -0.94018 12.8003 
33.4584 0.32204 12.7512 
32.0457 -0.374833 13.5532 
32.8457 -0.154492 13.6235 
33.5235 1.48001 13.7921 
32.5681 1.66995 14.1437 
33.3274 2.50454 14.333 
30.0228 -1.05827 17.2829 
25.8105 -0.271226 17.1106 
34.0178 2.35063 17.3353 
33.0147 2.92084 18.6292 
31.2478 -0.917274 20.3309 
26.2194 -0.265675 20.6278 
33.4037 1.09537 20.5472 
33.3096 1.69058 20.7372 
33.3896 2.27184 20.8439 
34.2161 2.43781 20.5281 
34.1723 3.00274 20.8804 
30.6688 0.475663 21.3577 
32.4866 1.23265 21.1639 
34.3755 2.97774 21.2551 
29.6962 0.776815 22.2429 
35.4729 3.01769 21.9796 
29.6196 0.879131 22.8084 
31.2223 2.48352 22.8397 
32.078 3.09987 22.5555 
30.2375 2.02696 23.3155 
31.0965 3.00367 23.4824 
30.2523 2.28579 24.224 
31.0881 3.04579 23.9783 
30.2589 3.02062 24.9577 
30.3242 3.09426 26.7907 
34.1698 0.360619 4.14055 
30.4762 -1.59183 4.48146 
31.977 -0.560292 5.79149 
26.4169 -0.449997 8.70116 
33.9097 -0.448787 8.71264 
25.2472 0.998857 8.58981 
29.2122 -1.31572 9.39161 
30.1909 -1.17951 9.59305 
30.1773 -0.998067 10.1459 
32.5053 -0.172203 10.5816 
26.481 -0.123827 12.8155 
32.8255 -0.379367 13.0453 
34.3686 2.44908 12.7604 
33.8048 -1.15347 13.6741 
33.5171 1.12513 13.5365 
29.042 0.139278 14.1947 
33.419 2.50398 14.387 
33.3893 3.40099 14.242 
33.9716 2.25485 17.3812 
27.2356 -0.192214 17.6152 
32.9729 2.8776 18.6951 
30.6102 -1.45796 20.1697 
33.6799 0.199965 20.2356 
29.787 -1.58507 20.5891 
29.5895 -1.1873 20.883 
32.961 -0.438025 20.7925 
33.5339 0.574263 20.3894 
34.2188 3.00722 20.8767 
33.2027 2.61406 21.0953 
30.1946 3.02704 25.5678 
29.9588 3.24517 26.0946 
30.2659 2.95823 26.2754 
30.4354 3.25837 29.1638 
33.3963 0.0763539 4.6677 
33.4463 0.625586 5.80719 
29.8088 -1.21713 6.89026 
29.6452 -2.0205 8.89143 
30.2398 -1.60976 8.60932 
31.5789 -0.691864 8.73425 
25.2314 1.01298 8.58254 
30.169 -1.18394 9.6271 
30.1514 -1.00188 10.1614 
32.2762 0.795749 10.0201 
33.7578 -1.20512 13.1631 
34.3816 2.82292 13.0335 
33.4649 2.50371 14.414 
33.9484 2.20697 17.4042 
33.2068 0.567809 17.6127 
33.3368 2.19632 20.8409 
30.2912 2.00649 23.1558 
30.1436 2.99705 25.1275 
30.0044 3.27694 26.0192 
29.9454 3.9579 27.5967 
30.3638 3.15799 28.1861 
34.0004 1.5847 1.11252 
34.0322 1.80658 1.69159 
33.6379 1.08486 5.79648 
31.7805 -0.392538 10.8689 
34.1688 2.64858 10.8607 
31.4006 -1.24381 12.4634 
35.3254 2.97309 12.4054 
34.4181 5.31188 12.4913 
34.2069 5.70981 12.5305 
33.786 -0.982699 13.0627 
33.5434 0.984359 12.7945 
33.7 1.28014 12.8734 
34.4559 4.35397 12.6311 
34.2065 6.665 12.7479 
34.1558 7.03402 13.0398 
30.1742 0.109445 14.3997 
31.1624 0.471272 14.3022 
33.4889 3.27465 14.2511 
29.797 -1.94209 16.7135 
35.0869 2.58888 16.6253 
33.0233 2.93809 18.1621 
29.6519 0.0858252 18.5782 
33.3783 1.46679 18.4631 
33.0258 3.02633 18.709 
34.0933 3.07095 18.6691 
30.605 0.416055 18.9981 
30.0012 -1.86634 20.2365 
31.4324 -1.02269 20.132 
29.6751 -1.22526 20.7843 
32.079 -0.254737 20.6026 
32.4812 -0.450617 20.5866 
33.4819 1.63031 20.6223 
31.7982 0.787826 21.3595 
32.6072 1.3174 21.0932 
28.243 1.21833 21.7661 
30.6713 1.1968 22.0077 
32.3104 2.75763 21.7626 
31.3443 2.49939 22.6717 
27.9771 1.8905 23.1848 
31.2519 3.11164 23.3812 
30.414 2.39713 24.2361 
30.226 3.85588 26.8848 
30.4323 3.23488 27.7552 
29.6566 2.97838 30.4425 
29.8412 3.29166 33.1791 
29.6862 -1.70732 4.81442 
31.2183 -0.895013 5.40571 
34.1087 2.21689 9.40232 
31.3679 0.399943 10.1431 
34.1849 5.74334 12.5587 
34.2355 4.89269 12.6328 
34.148 6.71659 12.8159 
33.5586 1.20943 13.4416 
33.45 3.12425 14.2021 
33.5067 -1.08107 16.9522 
33.1602 0.600072 17.1273 
29.0739 0.307938 18.1911 
33.2104 0.612508 17.6255 
26.895 1.3797 17.7604 
31.311 0.639435 18.5482 
32.8006 2.59187 18.4969 
32.806 2.60834 18.9912 
34.2186 1.7639 20.1292 
34.2139 2.96005 20.8214 
32.3776 1.75843 21.3523 
33.2258 2.45234 21.0455 
33.1899 2.98228 21.3903 
30.398 1.50488 22.366 
31.9363 2.36545 21.9242 
31.6073 1.22656 22.6063 
28.7835 1.85701 22.7614 
31.2016 1.68416 22.8551 
29.9445 2.77647 25.8312 
29.8697 3.21788 27.4648 
30.4282 3.15237 29.6699 
30.2083 3.29329 30.2316 
32.8384 -0.772889 4.59668 
33.8985 -1.19311 5.70239 
33.7174 1.20993 5.7927 
30.1911 -1.84545 8.56642 
30.6526 -1.15271 8.67028 
33.2381 0.287644 9.00191 
27.0466 -0.308022 9.66132 
34.0946 2.17706 9.44204 
29.8383 -1.12074 9.94815 
30.6167 -0.838799 9.892 
34.104 2.63884 9.99939 
31.7219 -0.433698 10.5999 
30.3431 -1.07748 13.0105 
34.4175 2.0659 12.6087 
29.5188 -1.56154 13.3549 
33.4306 3.04905 14.1777 
30.018 -1.72045 16.6561 
26.5208 1.83877 17.9649 
30.3672 0.279209 18.5894 
35.2015 2.99911 20.2923 
27.5586 -0.72404 20.3112 
26.8501 0.218136 20.7619 
33.337 1.82469 20.7381 
34.1225 1.90168 20.3812 
29.7185 0.172021 21.6155 
33.2226 2.37124 21.0278 
34.2028 3.02052 21.2919 
31.406 1.18083 21.77 
32.0293 2.403 21.8297 
32.0134 2.99322 22.1626 
28.5424 2.17406 23.031 
30.2041 2.76453 27.7085 
30.2325 2.95757 28.3202 
30.385 3.09748 29.7106 
34.6194 2.61955 4.63866 
25.3465 -0.616609 5.46941 
29.5556 -1.23664 6.23648 
31.2666 -0.66429 6.36034 
25.6084 -0.479808 9.03339 
33.3002 -0.192161 8.90017 
30.6983 -0.981001 9.30556 
35.1975 3.07448 9.46963 
33.3081 0.965119 10.5606 
32.1256 -0.992909 12.5638 
33.5819 1.26185 13.3955 
25.4775 -0.605333 17.3275 
33.1682 0.630575 17.2129 
29.2186 0.216835 19.083 
29.4778 -1.33579 21.4039 
31.5672 0.872163 21.4521 
32.0757 2.42177 21.7825 
35.4191 2.95173 21.7731 
30.0658 1.82739 22.9742 
30.193 1.67352 22.6881 
30.5973 2.39312 29.1394 
30.2484 3.10561 28.9905 
35.3559 3.02477 5.1747 
32.6447 -0.226576 6.07446 
30.5809 -0.872572 6.39755 
33.8283 -1.13573 8.87247 
25.7006 -0.392344 9.04446 
33.5724 0.848395 8.84405 
33.6346 1.26215 9.51107 
32.7059 -0.199509 9.93806 
31.8765 -0.380785 10.5571 
34.7219 4.42843 12.3984 
34.6367 2.6289 12.7949 
31.3879 -0.578724 13.5886 
33.7911 3.6406 14.5268 
31.9874 0.809619 14.78 
33.2827 -0.312489 16.5846 
33.4209 1.02246 16.554 
30.1527 -0.925544 17.6698 
29.941 -0.692368 17.7752 
33.4077 1.54627 17.8477 
31.5785 0.755126 18.587 
31.6679 0.798212 19.1383 
31.3823 -1.04714 20.2114 
33.9009 1.84602 20.4674 
28.2193 0.459944 21.1821 
31.2491 1.79511 22.2613 
32.3552 3.10045 22.1111 
30.1472 2.75389 24.8204 
30.1989 3.04295 25.6097 
30.2808 2.99645 26.883 
29.772 3.75532 28.2147 
34.4591 2.59431 1.1196 
33.4963 0.779719 1.5837 
33.2124 -0.447651 4.74894 
32.504 -0.631015 8.75911 
33.9223 0.397753 8.53289 
33.8091 -1.08114 13.1727 
33.9776 1.8701 12.8353 
28.8685 0.196752 14.1699 
33.6995 0.247036 16.4372 
33.4135 1.05262 16.624 
33.4096 1.12013 17.2819 
33.3875 1.50228 17.9054 
33.0095 2.9824 18.539 
33.0185 3.05767 19.1799 
33.7906 0.849594 20.247 
33.6606 1.2106 20.438 
34.4219 2.90169 20.7795 
29.5363 -1.55885 21.2003 
27.669 0.571382 21.0786 
30.5942 0.765726 21.5737 
30.2411 1.60139 22.5926 
30.9443 2.7017 23.4272 
30.8784 2.46549 24.1427 
30.7142 3.2922 24.4575 
29.7428 3.09618 26.2147 
33.9891 1.54054 1.07288 
33.9669 1.82794 1.71308 
31.2656 -0.957452 4.57651 
29.5287 -1.64835 5.43881 
34.0671 1.88379 5.20123 
34.0631 2.33391 6.55717 
33.8414 -0.984286 8.90465 
33.7299 -0.352841 8.7909 
34.07 2.15347 9.37635 
29.5473 -1.19295 10.667 
27.6959 -0.957787 12.5228 
33.664 0.17961 12.657 
29.3561 -2.54849 13.8592 
28.2923 0.407266 13.8603 
27.1342 -0.0364174 14.1832 
31.2079 0.451958 14.3288 
33.72 3.90236 14.5151 
26.2452 -0.425075 16.6153 
34.3483 1.79681 16.4459 
35.2594 2.71153 16.5839 
32.8061 -0.13338 17.2712 
34.1442 2.60939 17.1655 
28.9306 0.317151 18.5599 
32.0904 -0.400323 20.5261 
33.4753 1.24158 20.5406 
33.6664 1.05053 20.407 
34.4218 2.32228 20.4107 
32.2831 1.74563 21.4027 
33.1505 2.51614 21.1071 
24.2947 3.60777 21.4106 
31.172 1.65135 22.207 
32.0015 2.39736 21.8453 
31.8863 2.88124 22.2507 
29.8021 1.75497 23.3792 
30.8431 2.35228 24.196 
29.8371 3.85721 26.9499 
36.2332 3.00296 1.79113 
29.692 -2.18886 4.77881 
31.7396 -1.25494 4.37789 
34.0096 2.16357 5.8814 
34.0162 2.24493 6.65593 
32.6091 -0.56187 8.76639 
25.3762 -0.583062 9.61206 
29.6734 -1.26816 13.2204 
28.35 0.396495 13.848 
34.0285 2.60898 14.4312 
33.69 4.01517 14.5155 
30.1999 -1.60732 16.4456 
33.4861 0.989372 16.6747 
34.3449 1.83787 16.4695 
33.3947 1.1269 17.7229 
26.243 1.32729 18.3764 
30.3673 0.308044 19.0812 
27.3843 0.395426 20.9525 
34.3971 2.2573 20.3859 
29.5354 -1.86473 21.2153 
32.9994 3.06384 21.5214 
34.1908 2.9914 21.2556 
32.956 3.11587 22.0955 
29.8102 1.22151 22.5648 
29.7437 1.68096 23.3843 
29.2649 2.2539 24.236 
30.8255 2.29568 24.2226 
33.5246 0.783451 1.63967 
34.5096 2.43142 4.59258 
34.1529 2.46852 5.8573 
33.2958 1.18273 6.5559 
35.3585 2.89392 8.78496 
33.5134 1.51852 10.2299 
34.5538 2.60655 12.7947 
34.4419 2.95499 13.6198 
34.0224 4.30939 13.7426 
33.7912 5.1651 13.7243 
33.4036 6.57973 13.3905 
31.1108 -0.54289 14.1793 
33.2644 2.99248 14.3125 
33.7283 1.77634 17.0481 
26.5027 1.64215 18.012 
29.1114 0.237252 18.4339 
31.622 0.770222 18.5614 
33.612 1.93987 18.6784 
32.4326 2.34449 18.5758 
32.8417 4.03073 18.6959 
33.0796 3.86014 18.3308 
30.6522 -1.34142 20.2054 
33.8599 0.97424 20.2258 
26.3689 0.0573536 20.7657 
33.312 0.543619 20.5148 
32.8877 0.936611 20.851 
29.6852 0.0884524 21.5353 
32.3566 1.82433 21.3529 
33.2023 2.9742 21.3682 
29.6278 0.177351 22.0323 
28.3397 1.57441 22.2258 
31.0942 2.38725 22.9341 
31.8193 3.19367 23.4307 
30.6869 3.19713 24.4632 
30.5137 3.67537 24.6977 
29.1283 3.32139 26.7506 
29.6792 2.76532 29.8135 
29.8265 3.02085 32.3399 
34.401 2.47486 1.55595 
34.4038 2.97065 2.34677 
35.501 2.87032 4.5645 
31.0086 -1.00396 5.17479 
33.5347 -0.836321 5.40375 
33.4201 1.19897 6.69854 
34.1074 2.40422 6.66427 
30.9848 -1.10496 8.59921 
32.009 -0.841542 8.60537 
33.9053 3.00643 10.7904 
31.9471 -0.937876 12.5524 
33.4184 0.88463 13.0094 
34.07 2.1677 12.9482 
33.7789 5.95492 12.7704 
32.6026 1.84032 14.2355 
33.1848 3.74818 14.3156 
32.0071 0.797646 14.796 
33.9515 2.38764 14.7625 
33.7199 0.180495 16.4155 
33.3911 0.862009 16.6908 
33.3333 0.988428 17.1439 
33.8292 1.88308 17.6326 
33.8827 2.38915 17.8338 
31.7067 0.815006 18.6021 
32.3179 2.31067 18.5392 
32.9776 3.17323 18.6609 
29.2499 0.200802 18.9883 
32.5496 2.47872 19.0566 
33.013 3.2583 19.076 
32.8201 1.0943 20.916 
29.6727 3.0703 32.3862 
34.3672 2.89983 2.33471 
30.9679 -1.02891 5.12084 
33.8985 -1.28198 5.40628 
33.5631 1.20748 5.84464 
33.4823 1.20708 6.76985 
26.0449 -0.404161 8.80871 
31.8661 -0.593938 9.69538 
33.1291 3.80694 14.329 
33.5586 0.349093 16.5971 
33.3436 0.798328 16.6988 
34.0125 1.7787 16.6435 
28.773 -0.929417 16.9975 
25.611 -0.28508 17.6076 
27.8082 -0.191636 18.2901 
29.2407 0.196262 18.5154 
32.9982 3.33114 18.5993 
32.3965 2.37238 19.0996 
32.556 -0.425543 20.6081 
33.6231 -0.173278 20.424 
32.7863 1.17314 20.9484 
33.1242 0.969841 20.6995 
29.587 -0.2426 21.7987 
29.0075 2.25423 23.9876 
33.3817 0.321211 4.68206 
33.8164 1.75359 6.00044 
34.394 3.52385 5.85028 
29.1187 -0.316766 10.1661 
33.7456 1.74791 10.0684 
33.1882 2.28547 10.4155 
34.2668 2.97884 10.1093 
32.9643 0.300189 10.9408 
34.1964 5.93911 12.5859 
27.028 -0.402328 12.8621 
33.1982 -0.371729 13.01 
34.1533 2.39247 13.0034 
33.9874 6.7719 12.9749 
34.0084 2.55232 14.3867 
33.4642 4.35853 14.5762 
33.3871 1.07764 17.1485 
26.8062 1.32759 17.8266 
33.1044 4.41332 18.2935 
32.3221 5.77814 18.2069 
31.1159 -1.07497 20.2042 
33.7188 0.457693 20.2259 
33.2516 0.958663 20.6274 
34.8191 2.62781 20.5056 
34.5669 3.00024 21.2993 
29.3382 -2.59823 22.037 
31.9807 2.91172 22.1746 
31.2057 1.64668 22.7808 
30.2247 9.31288 22.5168 
31.0864 1.85571 23.3543 
31.3021 4.67314 23.5797 
30.4772 2.54046 24.2522 
31.0385 4.37013 24.0055 
30.1991 2.89208 28.177 
33.7415 1.07357 1.67458 
34.1674 2.47645 2.53862 
35.3215 2.86888 4.56827 
29.1373 -0.459856 6.16457 
30.5014 -0.184846 5.93893 
36.1618 3.04389 6.03692 
34.822 4.09574 8.2118 
33.8418 0.357549 8.60224 
34.8801 4.09088 8.61519 
34.7548 4.28892 8.57755 
34.2723 4.90963 8.6248 
34.4453 5.11328 8.53077 
34.1686 5.72106 8.58845 
34.079 6.58642 8.69683 
34.3374 6.31006 8.47131 
33.4552 0.906335 9.3295 
34.3061 3.95095 9.12382 
28.9617 -0.334397 10.1948 
31.1908 -0.589457 10.1275 
33.3241 2.50023 10.414 
34.258 3.9626 9.80657 
33.936 4.62262 9.84179 
34.2002 7.03055 12.9864 
29.6821 -1.13986 13.8088 
34.1663 7.14002 13.4572 
30.3659 0.294177 14.3768 
33.191 2.9544 14.2744 
33.8546 3.96528 14.2613 
30.4365 0.251851 14.8914 
33.1192 2.99239 14.8914 
34.115 3.16063 14.8879 
34.2053 3.11093 15.4986 
29.4735 -2.42578 16.5895 
33.1615 -1.00634 16.657 
33.3713 0.346643 16.6784 
29.8026 0.158762 17.8507 
32.9475 2.98775 18.5869 
28.0898 0.796224 19.0325 
32.5995 0.325155 20.7904 
33.273 0.260394 20.566 
34.0814 2.54858 20.6523 
33.4014 6.4117 20.8238 
33.8643 6.76152 20.7603 
34.0588 7.03983 20.7686 
29.7805 -0.46749 21.183 
32.6847 5.82715 21.5182 
33.0991 6.24448 21.2562 
33.4118 6.48104 21.1654 
33.7918 6.80821 21.1831 
33.9462 7.02142 21.5837 
29.7048 0.266188 21.8947 
31.8605 1.96945 21.842 
31.946 5.18284 22.3476 
32.2943 5.48256 21.8581 
32.4944 5.67166 21.7942 
34.1505 7.1686 22.0469 
31.5186 4.78011 22.8423 
34.2206 7.24371 22.4164 
29.9098 2.41511 24.3927 
29.674 2.84669 25.6091 
29.6753 2.5207 27.2299 
30.1661 3.97739 26.7679 
30.208 3.52825 32.1192 
33.5526 -0.764757 1.17966 
33.7229 0.990838 1.6664 
33.7712 -1.17886 5.64063 
29.2105 -0.542326 6.15886 
36.2018 3.04068 6.09896 
27.1 -0.795804 8.51032 
34.3773 1.51308 8.50589 
33.855 2.01119 10.1517 
33.392 2.6076 10.4132 
33.1895 0.812183 13.8899 
28.8567 0.204783 14.3884 
33.9369 3.94034 14.1342 
30.1946 -0.893756 14.775 
34.164 3.2828 14.8766 
29.9575 -1.54767 16.702 
33.865 1.56403 16.6085 
26.4617 1.15627 17.9788 
33.6644 1.78288 17.6604 
30.6156 -0.642868 18.6466 
26.2187 1.57174 18.3719 
30.4918 -1.36317 20.2134 
32.748 0.449951 20.7761 
33.2717 0.157327 20.5799 
32.4056 1.31108 21.2213 
34.0013 3.04073 21.4116 
27.435 1.19712 22.0027 
30.6435 1.43011 22.1934 
28.415 2.05865 23.322 
31.4359 4.77031 23.3445 
29.5517 2.83755 25.6322 
30.1362 4.03815 26.7095 
29.4411 -2.18674 1.25165 
34.1351 2.3999 2.49945 
29.5358 -2.32247 4.97278 
30.6236 -1.10179 5.17231 
34.1563 2.01038 5.10833 
32.7269 -0.253254 9.61432 
33.4259 2.66129 10.4128 
35.8014 2.99043 13.0355 
34.5134 3.02507 13.6096 
30.4037 0.39686 14.3269 
33.0969 2.93362 14.778 
34.0094 1.14721 16.4137 
34.3616 2.9259 17.0067 
32.3919 -0.236651 17.6294 
26.505 1.21118 17.9894 
33.5287 1.80848 18.0134 
31.6171 -1.00933 20.1266 
32.04 -0.138366 20.6996 
32.8223 0.512349 20.769 
32.6419 0.97733 20.9909 
34.5004 2.25175 20.3882 
29.7433 0.0685409 21.3949 
27.6571 0.995684 21.4241 
32.3791 1.31192 21.2381 
33.9856 3.04484 21.4246 
33.3915 0.751296 1.82253 
34.4711 3.06922 1.87568 
29.8494 -1.59305 4.72929 
33.9027 -1.13953 4.82723 
33.2126 -0.290204 5.16331 
30.3201 -0.135097 5.94527 
33.0196 0.187544 6.4576 
33.7336 1.76943 6.77012 
33.3832 0.484544 8.80682 
34.0904 6.6812 8.74199 
34.5469 2.97131 9.43035 
29.7493 -0.0905706 10.2061 
34.1504 2.98559 10.7665 
34.6283 1.87826 12.3972 
29.7568 -1.54394 12.9691 
33.391 -0.315801 12.9138 
34.2119 2.55342 13.1301 
34.1717 2.6462 13.7702 
33.7672 6.9137 13.5185 
29.6557 -0.0280654 14.393 
32.963 0.403757 14.3518 
34.0813 2.96375 14.2063 
33.3446 3.89292 14.3651 
33.3522 4.47209 14.5503 
29.6417 -0.0263513 14.7896 
33.3091 -0.230677 16.6815 
33.7073 -0.455329 16.6522 
35.442 3.00023 16.51 
33.0456 0.36902 17.1132 
33.4883 1.28001 17.1836 
33.9982 2.62353 17.7563 
32.3312 5.87068 18.2613 
29.3056 0.176741 18.9876 
31.9971 1.06775 19.1459 
35.137 2.99128 20.2867 
33.4591 -0.603415 20.5552 
33.9312 2.93537 20.8767 
31.8056 1.16289 21.5492 
35.1664 2.93607 21.1347 
32.3939 5.54568 21.591 
29.6019 -0.199812 21.7887 
30.9503 1.06304 21.822 
31.7153 1.88367 21.9638 
29.7563 1.06251 22.5414 
31.2212 1.56958 22.85 
32.3472 3.12078 22.5717 
31.0199 1.80517 23.4221 
28.9322 2.26901 23.9959 
29.8633 4.09443 26.982 
30.3946 3.27054 29.5792 
30.2231 3.33885 30.1966 
30.2101 3.17579 31.8107 
31.5693 -0.789048 1.30078 
34.8283 4.31514 8.54334 
34.2284 5.74095 8.56091 
33.9749 6.63548 8.80531 
33.6866 1.68855 10.8138 
34.2034 2.94582 10.7739 
34.4929 5.17131 12.4329 
35.4319 2.74345 12.9375 
33.9082 6.10287 12.7215 
28.4016 0.429691 14.27 
32.4685 1.57995 14.5433 
33.1011 2.62021 14.3455 
32.9561 2.63211 14.8351 
33.4396 -0.115792 16.6554 
33.7453 1.59865 16.6718 
34.5158 2.0374 16.4553 
34.1863 2.67152 16.9992 
32.9582 3.08445 19.0108 
32.1075 1.76806 21.6011 
32.9865 2.57043 21.237 
32.6468 5.79114 21.4647 
31.5543 4.83266 22.8583 
28.5067 2.19344 23.9553 
34.3984 2.8845 1.76604 
33.9039 1.55409 5.19829 
30.2473 -0.944455 6.849 
33.1537 0.467535 6.51575 
30.6335 -1.44632 8.55379 
33.2434 0.467155 9.60222 
33.7917 1.60684 9.64909 
32.5561 1.48864 10.3479 
33.1533 2.65805 10.4276 
29.8417 -2.21884 12.7715 
33.7313 1.58532 13.7279 
30.4699 0.307265 14.4128 
34.152 2.992 14.4218 
32.9745 2.67601 14.796 
33.245 0.42124 16.7179 
33.6977 1.63385 16.7063 
34.2264 2.7327 16.924 
33.0234 0.79841 17.8687 
33.4887 1.82461 17.8451 
32.9322 2.94737 19.0042 
32.6706 -0.445566 19.9958 
33.4326 1.83129 20.7339 
33.8301 1.59387 20.4568 
34.2189 2.70354 20.6525 
29.6247 -0.470417 21.4465 
31.267 1.00331 21.6316 
32.094 1.8491 21.6294 
32.7196 3.0196 21.5775 
31.7034 2.40617 22.1538 
31.3971 2.68731 22.7013 
31.3126 2.93705 23.0187 
30.2835 2.20777 23.4938 
33.1579 -0.118541 1.27552 
33.3067 1.14296 2.33927 
29.6463 -2.30995 4.81776 
33.9379 -1.06144 4.69838 
33.783 -0.461829 4.64968 
33.4967 1.10454 6.01852 
29.8095 -1.18232 6.83078 
34.0217 2.34271 6.80359 
33.7306 -0.439284 8.81723 
34.7032 4.04819 8.68985 
34.183 4.72972 8.72341 
34.0699 5.15242 8.70202 
33.6861 5.77688 9.12739 
32.3616 -0.324568 9.93864 
31.1335 -0.594003 10.9591 
33.418 1.2049 10.5725 
33.7683 -0.886687 12.92 
33.4666 -0.378755 12.9278 
33.1429 0.22176 13.0416 
34.1498 2.45406 13.0013 
34.2535 4.69259 12.6576 
33.9447 5.2194 12.709 
33.4491 6.47351 13.1656 
27.8726 0.31664 13.9089 
33.3719 6.53595 13.4807 
27.7108 0.633736 14.1461 
32.7923 4.60119 14.3316 
31.3358 0.52351 14.7608 
32.8412 2.36714 14.8951 
30.3167 -1.26606 16.6049 
32.3862 -0.392078 16.7322 
33.5004 -0.218786 16.6975 
33.1615 0.277938 16.752 
34.4782 1.95629 16.4376 
29.5117 -2.32658 17.243 
32.8038 0.339628 18.6063 
32.3156 5.42332 18.5092 
29.9355 0.187107 19.1662 
33.2775 0.126717 19.9884 
33.3613 -0.3456 20.595 
32.8216 0.435006 20.8017 
33.2315 1.81787 20.8071 
31.7044 0.397015 21.0878 
32.623 2.47797 21.4261 
33.4025 6.49059 21.2406 
31.4703 2.11909 22.3224 
29.5457 0.581076 22.6291 
31.2873 4.59658 23.4549 
30.9078 2.66389 23.9454 
30.2516 3.57773 25.436 
30.3557 3.23017 28.1728 
33.156 0.421204 2.29916 
33.7889 -1.15238 4.75707 
33.7724 -0.265578 4.59229 
33.9238 1.52866 4.69785 
29.662 -0.215214 6.02026 
34.1663 2.51632 6.00807 
34.1426 2.53247 6.88465 
33.1178 -0.252998 8.87269 
33.4168 0.379277 8.88922 
34.0212 5.89614 8.65651 
33.7937 1.59052 9.50562 
33.5701 6.66334 9.12482 
31.9052 0.66624 10.4335 
33.8265 -0.244303 12.5724 
33.787 6.60964 12.9099 
33.6902 6.80288 13.3849 
30.3264 0.405022 14.3999 
34.1945 3.0145 14.4447 
30.3152 0.416068 14.8614 
32.4965 1.63943 14.9207 
33.0013 2.73698 14.8515 
33.0609 2.87341 15.0598 
34.3604 2.89084 16.933 
34.1156 3.23029 18.0064 
34.3647 2.95554 17.6274 
32.1768 2.10441 18.6008 
34.0977 3.21568 18.5657 
32.532 5.75629 18.3157 
32.2855 6.40354 18.6339 
32.1687 2.12504 19.1579 
30.9901 0.373852 21.2342 
33.0744 2.68799 21.2077 
32.6654 5.79844 21.3865 
33.7588 6.80236 21.2413 
32.62 5.83151 21.7871 
29.6879 1.20781 22.8447 
31.3512 3.03521 23.0171 
31.6597 4.91933 22.6463 
33.796 1.47417 1.71961 
33.7171 1.5726 2.51855 
30.9089 -1.2021 4.52563 
29.5679 -0.241498 5.96305 
34.198 2.63529 6.07215 
30.3809 -0.958644 6.54168 
33.7303 1.63152 6.87748 
34.203 2.62735 6.92517 
30.9602 -1.20346 8.56134 
33.4152 -1.0205 8.57762 
33.4254 0.402264 8.88854 
33.9422 5.94456 8.69297 
27.8216 -0.589337 9.8307 
34.196 2.96015 10.0889 
33.8449 -0.138881 12.5724 
34.3585 5.24956 12.5278 
33.8801 1.59114 12.7944 
34.4225 2.62234 12.8488 
33.927 5.99332 12.6892 
33.7503 6.56009 12.8992 
30.423 -0.911673 13.8149 
31.4222 -0.397347 13.7831 
33.7363 1.74425 13.599 
34.3734 2.86283 13.4865 
33.6535 6.76359 13.3488 
30.3386 0.506627 14.4012 
33.0338 2.75697 14.4221 
33.0428 2.84331 15.2007 
34.2023 3.06212 15.0655 
33.8029 -1.2093 18.3252 
32.6324 5.69909 18.3429 
30.9232 -1.12111 20.2455 
34.0637 1.59148 20.2362 
31.1249 -0.123533 20.8419 
33.1024 1.09673 20.7387 
33.8319 6.58997 20.6995 
26.3808 0.317788 21.4027 
32.6754 5.80466 21.3731 
31.7023 2.96712 22.6962 
29.676 1.31929 23.4052 
30.63 1.99231 23.3894 
29.7408 3.05472 29.232 
30.6191 4.04752 29.3405 
34.1417 2.35291 1.77754 
33.8611 -0.991402 4.67644 
33.7052 -0.273725 4.61584 
34.6322 4.0962 4.54317 
35.069 4.11546 4.38685 
34.1623 4.78681 4.62634 
34.6043 4.47487 4.45803 
35.0212 4.20229 4.34519 
34.1719 5.15997 4.50946 
34.6307 5.08414 4.29828 
33.8903 5.84053 4.58877 
34.3419 5.77798 4.36552 
34.3522 6.7176 4.47143 
34.47 7.56663 4.72018 
34.0113 1.78337 5.26612 
34.4718 3.72321 5.19868 
34.0199 5.08569 5.15363 
34.1535 7.31235 5.25327 
34.4499 7.61446 5.55411 
34.3934 3.7074 5.83002 
34.0574 4.5134 5.8466 
34.4295 7.74084 5.89302 
33.4699 1.24201 6.87866 
33.909 3.08308 6.62652 
34.5981 3.92927 8.75699 
34.2861 7.11323 8.93234 
31.1818 -0.789324 9.50952 
33.2021 0.3895 9.60533 
34.0279 4.68709 9.25943 
34.2183 7.29045 9.45961 
33.3535 3.23078 10.4355 
33.6318 5.44171 9.85928 
34.4555 7.57167 10.1568 
34.2542 7.34229 12.4752 
29.6794 -2.19126 12.9425 
33.2129 0.398508 13.0089 
34.1638 4.70722 12.6811 
33.7855 5.35004 12.9264 
34.3005 7.26393 13.0779 
33.6281 1.31851 13.5329 
33.7211 5.35335 13.7306 
33.3003 6.43132 13.6492 
34.3073 7.27235 13.6162 
27.5125 0.745538 14.187 
32.8403 2.35932 14.4156 
33.1642 4.33789 14.3564 
33.1941 6.40733 14.2958 
34.2761 7.36456 14.1014 
30.2953 0.26633 14.9839 
32.8421 2.36892 15.0367 
33.7878 1.12708 16.5529 
34.4911 2.25761 16.5516 
33.5662 1.44383 17.2723 
26.4811 1.29353 18.0151 
34.0269 2.67701 17.8383 
26.227 1.5383 18.4118 
32.3665 5.29174 18.497 
32.341 5.32202 19.1176 
32.3778 1.60962 19.6939 
33.6205 -0.209387 20.3678 
32.3458 5.5025 21.6184 
30.6566 1.23697 22.0354 
32.4398 3.03879 21.969 
31.2883 4.5865 23.3976 
30.5815 3.21913 24.6588 
30.3781 3.5663 26.2318 
30.2174 3.68628 28.1136 
30.3135 3.7543 29.6689 
33.2892 -0.319582 1.14131 
33.8174 1.74596 2.55726 
35.0308 2.11822 4.16865 
29.6726 -2.43261 4.82014 
31.6601 -1.18377 4.37701 
33.9605 6.0407 4.5576 
33.5533 0.824313 5.15125 
32.566 0.330405 6.1608 
33.7991 1.84241 6.0026 
32.8115 1.57998 6.38182 
34.4014 2.99193 6.73106 
34.38 1.38294 8.25608 
34.5134 5.4328 8.35416 
33.7635 -0.91173 8.89574 
34.0022 1.73955 8.80727 
33.0862 -0.144902 9.25078 
29.6597 -1.20597 10.0138 
32.1447 0.81935 10.214 
32.5439 2.31087 10.1596 
34.3799 3.12576 9.89822 
32.8389 0.136636 10.7645 
33.9595 2.31015 10.8609 
33.2104 3.0104 10.7905 
34.0513 3.81963 10.8458 
34.2259 6.00728 12.5721 
33.3518 -0.170601 12.8779 
33.3909 1.00358 13.5901 
34.3962 3.10914 13.4631 
35.8232 3.00068 13.7161 
34.1432 3.76069 13.7862 
33.9707 7.0914 13.5261 
31.9848 0.850084 14.5184 
32.5732 1.81278 14.3957 
33.8863 4.23584 14.2762 
34.0052 4.05925 14.8221 
33.3265 5.14942 14.7237 
29.388 -1.13903 15.5374 
33.3579 -0.135575 16.7366 
33.7961 0.462081 16.4439 
33.9577 4.74095 16.6559 
33.8483 5.41188 16.6272 
34.056 5.98831 16.5326 
33.9288 6.60281 16.7166 
32.997 0.275554 17.1407 
34.0729 4.01866 17.3346 
33.4301 6.13482 16.8324 
33.315 6.40368 17.2086 
33.8269 6.86897 17.2132 
34.1852 7.13728 17.1815 
32.962 0.391773 17.7347 
33.9784 4.18009 17.6787 
33.5753 4.83509 17.8971 
33.2747 6.38806 17.6828 
34.1662 7.20942 17.9209 
32.5529 2.45173 18.6567 
33.0446 3.68484 18.5942 
33.3282 4.66705 18.3141 
33.6534 4.73203 18.7285 
34.2799 7.40449 18.4355 
34.3458 7.39972 18.4681 
32.9868 3.54873 19.2302 
33.1951 0.110908 19.9732 
32.9652 3.58621 19.6027 
33.4767 -0.321991 20.5102 
32.7949 0.440277 20.8289 
33.1868 1.73519 20.7911 
32.4356 0.968797 21.1462 
33.8785 6.91197 21.243 
31.7429 1.71155 21.8893 
31.9985 2.63141 21.9594 
30.6355 2.31392 23.5837 
30.9452 4.15711 24.0005 
30.1708 3.16438 26.3142 
31.0974 -1.00253 1.65007 
32.0329 -0.588103 1.54787 
33.3913 0.975823 2.30015 
25.8153 -0.788153 4.52256 
31.5823 -1.2488 4.35434 
32.343 -0.607826 4.60669 
33.4314 -0.42648 4.79215 
35.7945 2.89728 4.67937 
34.6108 2.97854 5.41974 
32.7326 0.215813 6.16894 
32.9873 0.159832 6.93457 
32.8425 1.6008 6.37754 
34.1719 5.95116 8.57771 
33.0762 -0.0818072 9.19322 
34.3798 3.22327 9.8684 
34.201 3.7256 10.0351 
29.8405 -0.0825625 10.5701 
29.976 -1.596 12.7826 
32.3703 -0.567914 12.7898 
33.6832 -0.472284 12.8602 
33.0599 0.172052 13.1211 
34.0211 1.93912 12.8582 
33.0546 0.148512 13.6466 
34.1191 3.83201 13.7994 
33.829 0.56427 16.4142 
33.4128 1.13811 17.028 
28.8536 -0.772485 17.7312 
33.3338 1.26497 17.848 
31.8596 -0.205595 18.3929 
33.2529 1.25002 18.506 
33.0271 3.59719 18.7258 
33.4459 4.76592 18.3058 
32.3863 2.4684 19.1474 
30.9591 -0.762418 20.4804 
29.5775 -1.11063 21.1907 
32.6604 1.91983 21.1975 
32.8385 5.97437 21.4379 
32.0679 2.68969 21.9074 
31.2027 1.88889 22.6977 
30.0059 3.14859 27.0261 
30.0236 3.20385 27.5109 
30.035 3.11899 28.1649 
30.194 3.20909 29.8584 
30.023 3.16231 30.4588 
30.1781 3.16191 32.0483 
33.84 1.21716 0.970473 
33.3464 0.279873 1.5902 
34.1759 2.47078 1.77813 
33.2015 0.52646 2.22419 
33.9874 1.51117 4.59526 
34.5153 4.44741 4.49936 
33.9912 5.1658 5.15537 
34.3812 7.5275 5.28385 
32.5497 1.23178 6.16853 
34.2583 7.5782 5.67214 
34.0211 0.959171 8.14034 
33.7983 -1.01063 9.0146 
34.551 4.49002 8.60997 
34.0415 5.20448 8.71192 
34.1977 2.48558 9.36567 
33.5601 6.0623 9.28921 
34.3896 7.42532 9.3257 
33.3869 3.98772 10.4927 
33.5112 6.16241 9.82892 
34.1693 2.9918 13.7975 
27.4017 0.882999 14.2613 
32.5562 5.28621 14.2869 
30.4228 0.297628 15.0235 
32.9843 2.71247 15.0034 
33.3919 6.47141 17.1386 
30.182 -0.78372 17.8906 
31.8701 0.942329 18.8028 
26.2099 1.63177 18.4608 
32.3622 1.61963 19.2901 
32.9299 2.88183 19.2155 
32.731 3.05369 21.6011 
31.0337 1.75056 22.5493 
31.3447 4.68127 23.3824 
29.576 3.02503 29.07 
34.3951 2.46352 1.08686 
34.7151 1.80217 4.04587 
33.9768 5.20585 5.15623 
34.3469 7.48402 5.14873 
29.2443 -0.394259 6.07582 
34.1798 2.64394 5.99611 
34.206 2.62253 6.78599 
33.8102 -1.10664 9.05513 
31.726 -0.592344 8.78995 
33.7855 5.89805 8.74962 
34.2376 2.57507 9.40916 
32.4955 1.48208 10.4148 
34.1677 2.72299 10.1804 
34.3953 7.49994 9.97667 
33.9171 0.123247 12.5055 
33.2668 0.606118 13.0145 
33.8715 1.59461 12.8021 
34.2671 2.62468 13.0087 
27.3648 0.92882 14.2861 
32.9886 2.69 14.4306 
33.6287 -0.969132 16.6136 
34.0026 1.21841 16.4355 
33.4175 6.49398 17.1153 
26.4513 1.58587 18.0646 
31.7856 0.880606 18.8312 
29.9779 -0.61972 19.8675 
33.7821 1.81434 20.0155 
29.7943 -0.526525 20.9245 
34.544 2.65227 20.552 
35.4608 3.01546 21.3698 
30.9492 1.68139 22.4751 
30.3938 2.20053 23.6152 
29.4935 3.01018 28.9891 
33.3791 -0.142474 0.64358 
33.3004 0.172999 1.27278 
33.2114 0.25915 1.81352 
34.465 3.20613 1.76064 
34.0303 2.15073 2.82977 
34.3423 5.86713 4.36909 
34.0603 6.60608 4.5653 
32.507 -0.391989 5.40315 
33.9819 1.83153 5.45272 
34.0005 7.16583 5.09297 
32.862 1.94693 6.28692 
34.1692 3.95739 6.14015 
29.0332 -0.969741 6.45008 
33.1942 -0.195042 8.90327 
35.8523 3.10425 9.51127 
34.3844 3.73863 9.35184 
34.0669 7.14931 9.33519 
32.4363 2.4008 10.136 
34.1429 3.94994 9.93773 
33.925 4.59601 9.98278 
31.2433 0.401115 10.5866 
33.9008 4.48365 10.7094 
34.2568 6.45142 12.464 
33.7001 -0.38769 12.8138 
34.173 2.4516 12.9823 
34.8024 2.91652 12.9917 
34.1844 4.09033 13.043 
33.9997 6.81368 13.0003 
34.0833 2.44953 13.5609 
34.1235 4.01029 13.6254 
33.9837 4.39621 13.7426 
33.6912 5.14402 13.8451 
33.9079 7.07332 13.6212 
33.6603 4.9466 14.4185 
32.7809 2.26353 14.9649 
33.0776 3.64477 14.9608 
33.6325 5.00009 14.849 
33.3839 0.185143 16.68 
34.1256 2.18117 16.6723 
34.8516 2.97856 16.1703 
34.0657 6.69642 16.6826 
33.8171 4.76503 17.2912 
34.0717 7.07365 17.2413 
33.3517 5.50736 17.7168 
33.2928 5.60922 18.1159 
33.1095 5.82878 18.7036 
32.7958 4.1006 19.2836 
32.9492 6.17697 19.2968 
33.1932 -0.771178 20.1691 
31.9255 1.07557 19.6534 
32.9635 6.16416 19.7263 
33.5368 -0.180797 20.4712 
33.1589 0.464961 20.6113 
34.0516 2.37389 20.569 
32.3741 1.04313 21.1983 
34.0035 7.04524 21.4983 
33.6063 3.07212 21.7296 
34.0929 7.149 21.9465 
29.7519 1.82417 23.4765 
31.8662 3.21722 23.38 
31.0217 4.34562 23.9925 
30.2886 3.30581 26.8673 
30.1861 3.24904 28.2954 
29.899 3.57832 30.9881 
29.93 3.26216 32.4256 
34.6414 2.77204 0.662805 
33.2352 -0.257754 1.22553 
30.9725 -0.969741 1.58657 
33.8536 1.76336 1.80958 
34.3915 3.003 2.21772 
33.8198 1.82001 2.84141 
35.1653 2.36771 4.39475 
34.5495 5.12913 4.33062 
34.0481 5.97234 4.50703 
33.9191 6.47432 4.6099 
33.1916 -0.178643 5.07798 
35.8145 3.01213 5.21786 
30.896 -0.906911 5.79008 
34.5008 7.76873 6.00978 
33.4461 1.08877 6.57172 
34.4512 3.07183 6.84879 
33.7382 0.944795 8.67368 
33.9163 6.50298 8.74331 
30.59 -0.990369 9.41536 
28.5534 -1.01515 9.8064 
32.3157 2.30067 10.1643 
34.2187 3.20956 10.1211 
31.1029 0.365165 10.6197 
33.222 3.05022 10.5989 
34.0578 3.78493 10.8898 
33.4278 6.71328 13.4875 
30.4652 0.807897 14.4012 
35.8053 3.00357 14.1199 
34.0307 3.82541 14.3092 
32.2326 6.31648 14.3706 
29.7913 -1.7489 16.6405 
26.6948 0.0306263 16.6723 
33.8325 0.869333 16.3895 
34.0422 6.04735 16.5361 
34.1452 3.8051 17.3937 
33.7428 6.76794 17.1129 
33.7322 4.27615 18.0472 
32.3577 2.39484 18.7511 
33.7067 4.43217 18.6556 
33.3245 -0.163729 20.1115 
33.8355 5.93128 20.1409 
33.1263 0.288935 20.6461 
32.5028 0.373368 21.2111 
32.6492 1.78328 21.1423 
33.8109 6.83661 21.1768 
29.6002 -0.136528 21.8705 
31.7334 1.18304 21.9964 
31.4289 3.03213 22.9662 
30.023 2.78392 28.1817 
29.6034 3.05226 28.939 
29.8989 3.05705 32.0086 
29.5124 -2.83988 0.972497 
30.9209 -1.0025 1.53162 
32.987 0.117194 1.88987 
34.5442 2.96317 1.56632 
33.4466 0.991412 2.5172 
34.4036 3.05459 2.15922 
32.2926 -0.647849 4.59144 
33.4225 -0.365201 4.73656 
34.7322 4.56497 4.37574 
32.0479 -0.597061 5.19407 
34.0062 1.89362 5.48993 
35.7951 3.01689 5.24572 
29.0405 -1.28893 5.79502 
32.048 -0.474928 5.79729 
32.9836 0.16894 6.02424 
33.8648 1.95874 6.02535 
33.0034 0.137353 6.82317 
33.2361 2.88666 6.38935 
32.3512 -0.628947 8.72301 
34.4408 5.22163 8.51917 
28.6031 -1.03784 9.807 
32.9922 0.202556 9.86189 
33.1989 3.00863 10.5519 
34.2384 3.29893 10.7638 
32.373 -0.621124 12.7518 
33.9912 2.01972 12.9323 
29.5149 -0.0343812 14.3856 
30.4299 0.793627 14.4461 
33.1595 3.06014 14.6079 
34.0482 3.79126 14.3887 
33.3229 1.20828 14.8535 
29.5524 -1.53634 17.1006 
32.9768 0.196842 17.0183 
34.1814 3.69832 17.4233 
30.6265 -0.826154 17.6821 
32.9653 0.247516 17.5795 
32.3124 2.3666 18.8198 
33.0455 3.09495 18.8253 
33.7245 4.33221 18.6313 
32.3259 2.37475 19.2136 
32.358 2.33621 19.6293 
33.9289 6.05217 20.2116 
33.255 1.25845 20.6663 
30.6303 0.574888 21.4511 
32.4947 0.504859 21.1154 
32.0443 1.01547 21.4046 
33.7545 6.78028 21.1501 
31.7429 1.24691 21.9599 
31.3363 1.56836 22.7935 
31.4544 3.10491 23.0183 
30.6685 2.14019 24.2061 
33.8785 -1.19702 1.3282 
33.9749 1.62909 1.20594 
30.3512 -1.19386 1.59784 
33.7979 1.73927 1.84825 
33.8023 1.74733 2.82898 
26.4441 -0.789125 4.38863 
25.8047 -0.520799 4.65744 
34.0085 1.59621 4.67715 
34.2229 4.67212 4.61098 
34.2281 7.14651 4.73642 
30.3873 -1.18463 5.14428 
33.4706 -0.783793 5.40603 
33.9161 1.70476 5.44912 
34.1256 4.79999 5.06717 
31.7928 -0.574331 5.79481 
33.7758 1.81495 5.96521 
34.3455 2.66096 5.7191 
34.0771 4.68215 5.79801 
31.3438 -0.587794 6.69165 
33.7845 1.81341 6.67794 
34.6403 1.7891 8.31694 
33.8317 -0.927302 8.73891 
31.8084 -0.612091 9.01613 
34.383 4.56697 8.65464 
33.9813 5.1791 8.73981 
33.8249 5.29869 9.20901 
34.1314 7.20497 9.36805 
33.8179 -1.18245 9.84465 
28.3623 -0.308553 10.1673 
33.7756 1.84796 9.99781 
33.7367 5.36109 9.83031 
33.4951 5.99455 9.88723 
32.4615 1.43105 10.8468 
33.527 3.62954 10.5746 
34.6127 1.79593 12.3548 
33.8382 5.4275 12.7501 
33.6796 5.80746 12.9785 
33.8074 -1.06172 13.5607 
34.1183 2.96927 13.826 
33.2137 6.26944 13.856 
33.6079 5.67507 13.6606 
34.0698 7.1609 13.676 
26.9925 0.891947 14.3145 
32.7047 4.69667 14.5078 
33.1971 4.43534 14.5033 
33.2223 6.262 14.338 
29.7361 -0.990003 15.0012 
33.2655 6.20269 14.8314 
33.4113 0.378484 16.6546 
33.7238 -0.955995 17.1291 
33.3981 6.1061 16.9673 
34.1793 7.21656 17.2153 
33.682 -0.94615 17.5996 
35.492 2.9179 17.5622 
33.3259 5.85107 17.822 
34.2069 7.23958 17.8947 
29.607 -0.884234 19.7434 
32.5813 2.55078 19.6868 
35.2793 3.09153 20.5962 
32.1066 1.88978 21.584 
32.2473 5.46728 22.0626 
29.6765 0.995581 22.5733 
30.2415 3.64613 28.3605 
30.1923 3.63864 31.4228 
33.4085 0.433994 1.30829 
34.4428 2.59668 1.21895 
34.4494 2.92072 1.77475 
33.4618 1.03494 2.8383 
34.3548 2.97926 2.90047 
34.4034 2.64163 5.23695 
33.8899 5.28253 5.81641 
34.0998 3.0176 6.47371 
32.8192 -0.113848 7.14948 
34.7381 2.22867 8.22042 
25.1736 -0.620738 8.56392 
33.4356 -0.377641 8.95349 
33.9143 5.25562 8.7759 
34.326 6.63238 8.59531 
34.4529 2.97683 9.32023 
33.7963 5.36599 9.24537 
28.2288 -0.248711 10.262 
34.4058 3.02346 9.82453 
35.5259 2.9728 12.4731 
33.256 -0.209062 13.006 
33.7406 5.50699 12.9453 
34.2258 7.10505 13.0307 
33.2592 6.14359 13.8587 
25.1572 -0.5844 14.1373 
26.7165 0.304873 14.4428 
33.2575 6.14727 14.3224 
32.713 -0.047736 14.7748 
26.4841 0.428929 14.8032 
34.2065 2.99813 14.9335 
33.233 6.15322 14.9061 
32.6824 0.0335425 15.6797 
33.1344 2.62967 15.8406 
33.1042 6.27139 15.5617 
33.6732 -0.4843 16.5703 
33.3567 1.04281 16.7267 
34.1269 7.20218 16.4104 
33.1013 -0.314143 17.0499 
33.2189 6.05428 17.9811 
33.1103 6.04332 18.6327 
33.0199 6.2302 19.1398 
32.8316 2.81934 19.7304 
34.2294 4.74962 20.0945 
33.0396 6.20702 19.7756 
29.6626 -0.871006 20.8594 
33.2789 -0.143052 20.6986 
33.4963 5.7622 20.614 
32.868 -0.148468 21.2386 
32.6102 1.57316 21.1133 
33.1177 6.23308 21.1738 
31.1756 4.48687 23.4681 
30.3844 3.24801 24.9002 
30.2807 3.23571 25.5027 
29.7574 3.7508 26.1716 
30.2022 3.41277 26.8713 
30.3128 3.41106 27.6595 
30.3177 3.25824 29.8058 
29.7435 3.71727 31.9624 
29.7548 3.6374 32.5075 
34.4667 2.66326 1.28499 
35.6362 3.02139 1.21342 
33.398 0.833885 1.90554 
33.4104 0.930738 2.83135 
31.8131 -0.783214 4.58605 
34.4931 4.60281 4.47299 
33.4858 0.786382 5.2395 
33.9563 5.20701 5.2034 
29.0122 -0.555396 6.23965 
34.1952 2.98486 6.39732 
34.3521 2.96502 6.95262 
34.8417 2.23584 8.28546 
33.4902 -0.455748 8.97036 
34.2059 4.79113 8.68821 
34.3204 6.79353 8.65731 
28.1621 -0.21879 10.3093 
32.8112 -0.0629716 10.0629 
34.4067 2.926 9.81558 
33.4741 5.86082 10.0261 
32.8058 -0.0397659 11.5386 
35.611 2.96814 12.473 
29.6649 -2.19396 13.0466 
33.6807 -0.581147 12.7958 
33.3774 0.898484 12.9883 
33.6918 5.54674 13.0429 
29.473 -2.17537 13.607 
29.8053 -1.00759 13.8888 
33.6489 5.48324 13.6513 
26.6795 0.406803 14.3713 
34.2121 3.02482 14.2126 
26.4475 0.52353 14.7657 
32.7753 0.0486377 15.0253 
34.2239 3.0153 14.9493 
33.0391 2.66621 15.7779 
34.212 3.03069 15.7015 
30.6418 -1.27903 16.3992 
29.5701 -2.17689 16.8721 
29.54 -2.03325 17.1556 
30.0293 -1.0385 17.0152 
34.4306 2.91732 16.9982 
30.1909 -1.0121 17.5852 
33.6611 2.02716 17.8299 
33.1654 6.15589 18.0606 
34.1595 7.1879 17.7547 
33.1107 6.15059 18.5973 
32.7188 0.0705837 19.1931 
33.0777 6.22845 19.8003 
29.5991 -2.0182 20.8339 
33.15 -0.12418 20.8124 
33.6062 -0.44673 20.4878 
32.5876 1.55861 21.1118 
30.3087 3.32362 25.0073 
29.9265 3.63168 26.1614 
30.1735 3.44842 26.8726 
29.8851 3.65659 31.9214 
29.8861 3.62203 32.5359 
35.1982 2.91946 0.62793 
34.2851 2.30397 1.35315 
34.5442 3.68047 1.18108 
34.2716 4.5358 1.11704 
34.1133 2.40401 1.87249 
34.3708 3.88227 1.73823 
33.2146 0.493032 2.50866 
34.0939 2.29206 2.83329 
34.1117 6.03566 4.46942 
34.4212 5.78418 4.31819 
32.5765 -0.389852 5.26279 
34.4468 3.77817 5.25385 
33.6591 6.85407 5.16694 
33.5972 1.47679 6.1365 
34.1707 4.03412 6.02365 
33.3201 1.6598 6.48097 
34.0327 4.27321 6.36226 
34.2907 3.97051 8.97534 
34.3389 5.90683 8.5238 
33.8423 6.54634 8.81489 
34.2326 4.03805 9.43692 
29.1638 -1.20695 9.92947 
32.3517 2.37284 10.2523 
34.1277 4.06382 9.88359 
33.9002 4.52505 10.0483 
33.8072 6.58245 12.9253 
33.1473 0.486122 13.5901 
33.707 1.59688 13.5418 
33.9337 4.41903 13.7523 
33.5443 6.84342 13.4966 
33.1587 3.25371 14.6304 
33.8138 4.45536 14.3122 
31.9398 6.7077 14.6787 
33.0047 0.43655 14.7974 
33.5473 1.59364 14.794 
33.1438 3.27579 15.0664 
33.1324 3.27369 15.462 
33.9791 6.59315 16.701 
33.882 4.5653 17.3068 
33.7906 4.37778 17.8659 
32.978 3.63961 18.7695 
33.5187 4.80295 18.5124 
32.8424 3.91182 19.4259 
32.9488 3.62476 19.21 
33.8791 3.04844 19.8028 
33.5715 4.80141 19.9675 
33.1633 1.81178 20.8326 
32.3325 1.1061 21.243 
32.5364 2.31831 21.3868 
33.4183 3.04363 21.5312 
33.7162 6.77405 21.2479 
30.9688 2.33557 23.4262 
29.9041 3.01725 28.2298 
29.5786 -1.57335 0.969609 
33.3708 0.366322 1.24949 
33.2067 0.451704 2.62083 
33.2176 0.405596 6.00454 
34.1715 4.07248 5.96541 
33.4546 1.57096 6.53726 
33.8422 -1.07149 8.76428 
33.7877 0.135991 8.64105 
32.3898 2.42562 10.2916 
32.2943 1.08821 10.7859 
32.5301 2.42132 10.8262 
33.262 3.23919 10.7732 
34.5793 2.15474 12.5743 
25.8882 0.0919938 13.4225 
34.1353 4.04764 13.5614 
33.7897 4.52853 14.3242 
32.753 2.22343 15.599 
29.589 -1.32726 17.1243 
33.646 1.61157 16.9351 
33.9168 2.64762 17.9528 
33.5695 4.81431 18.0015 
33.8198 4.4286 17.7753 
28.8544 0.35746 18.8027 
32.0642 1.16662 18.8041 
32.0646 1.24188 19.3443 
32.9297 3.66278 19.1999 
33.1673 1.86942 19.8717 
33.74 3.03259 19.8423 
34.7982 3.25124 20.1414 
29.5876 -1.21115 20.7802 
33.446 0.32329 20.4437 
29.5755 -1.21125 21.1693 
33.504 3.03746 21.6058 
33.774 2.99982 21.2933 
29.643 0.140696 21.9891 
31.7512 1.58741 21.809 
31.1812 1.89909 22.7416 
30.9709 2.19596 23.4055 
29.9262 2.88077 25.6079 
34.0524 1.77004 1.21161 
33.1078 0.241392 2.60538 
35.8505 2.96454 4.47886 
34.0802 5.25393 4.55423 
33.2014 0.174856 5.37611 
35.8788 3.00571 5.15342 
33.8084 5.69252 5.15934 
33.7799 5.72645 5.79354 
32.7884 1.78944 6.34146 
33.122 2.64082 6.51777 
34.396 3.03313 6.76131 
34.418 3.09123 7.19358 
34.0021 0.447233 8.33788 
29.7906 -2.19678 8.74167 
33.2463 0.18136 8.90534 
34.0327 1.81427 8.80013 
