ply
format ascii 1.0
comment Created by CloudCompare v2.11.1 (Anoia)
comment Created 2026/6/4 下午3:34
obj_info Generated by CloudCompare!
element vertex 1890
property float x
property float y
property float z
end_header
12.2455 1.13067 10.5472 
13.1884 1.18915 10.5476 
13.2458 1.15488 10.5463 
13.3458 1.14983 10.5443 
6.64566 1.25209 10.5582 
6.88971 1.24502 10.5708 
6.91142 1.24266 10.5165 
7.79026 1.20688 10.55 
7.86507 1.20489 10.541 
7.93954 1.22092 10.546 
8.02683 1.27474 10.5413 
8.36494 1.26212 10.5437 
11.9868 1.28876 10.5472 
12.0357 1.23771 10.554 
13.1638 1.23962 10.5483 
13.4615 1.24077 10.5376 
6.59095 1.38012 10.545 
6.60533 1.34245 10.5483 
6.78442 1.39764 10.503 
6.85678 1.36829 10.5494 
8.06934 1.31917 10.5408 
8.12636 1.3714 10.5473 
8.39754 1.31247 10.5274 
8.43608 1.36104 10.5501 
11.8841 1.39238 10.5525 
11.9341 1.34099 10.5468 
13.1865 1.33652 10.5488 
13.2497 1.37728 10.5649 
13.3533 1.38651 10.5389 
13.4502 1.3433 10.5474 
6.64751 1.41869 10.5312 
6.73371 1.41964 10.5579 
6.84283 1.42002 10.5934 
8.17235 1.41756 10.5245 
8.22359 1.47196 10.5246 
8.48313 1.43156 10.5348 
8.52343 1.47862 10.558 
11.7905 1.48869 10.5653 
11.8336 1.44458 10.567 
8.26668 1.51643 10.5871 
8.31503 1.56857 10.5475 
8.5851 1.54035 10.5494 
8.63016 1.57763 10.5404 
11.6974 1.5914 10.5029 
11.7326 1.54955 10.5602 
8.36997 1.62828 10.549 
8.44079 1.68167 10.5439 
8.68006 1.61859 10.5543 
8.72838 1.67074 10.5471 
11.5928 1.69008 10.5716 
11.64 1.64661 10.5536 
8.47636 1.71718 10.5424 
8.52003 1.76263 10.5352 
8.77485 1.72297 10.5546 
8.81372 1.77205 10.5443 
11.1565 1.74446 10.5427 
11.2012 1.70347 10.5232 
11.4935 1.7932 10.5519 
11.5461 1.7404 10.559 
8.57252 1.81029 10.5569 
8.62954 1.86568 10.5469 
8.87732 1.83601 10.5512 
8.92585 1.87745 10.5505 
9.89106 1.89355 10.5733 
9.91588 1.89821 10.5652 
11.0854 1.87308 10.5414 
11.1067 1.81193 10.5248 
11.4227 1.87005 10.5479 
8.68038 1.91502 10.5523 
8.71886 1.96572 10.5611 
8.97889 1.91474 10.564 
9.05312 1.95801 10.5504 
9.10905 1.98322 10.5671 
9.36492 1.99392 10.5841 
9.45637 1.98325 10.551 
9.54624 1.96485 10.5573 
9.67065 1.94547 10.5361 
9.76568 1.92151 10.5648 
9.82512 1.91 10.5593 
9.95555 1.90815 10.5313 
10.0475 1.92077 10.5508 
10.1606 1.96614 10.5635 
10.247 1.99673 10.5959 
11.0661 1.9532 10.5624 
11.3514 1.94826 10.5466 
8.75856 2.04374 10.5459 
9.17343 2.01953 10.5428 
9.25552 2.02371 10.5411 
9.35762 2.00582 10.5341 
10.266 2.01493 10.5608 
10.3445 2.04193 10.5602 
10.4442 2.06126 10.5538 
10.5386 2.06903 10.5643 
10.6501 2.0853 10.5417 
10.7143 2.09668 10.5569 
10.982 2.08702 10.5684 
11.0322 2.03988 10.5397 
11.2952 2.07819 10.5652 
11.3185 2.02764 10.5601 
8.77478 2.14485 10.5313 
8.80851 2.18634 10.5381 
10.7513 2.11183 10.5353 
10.8484 2.12345 10.556 
10.9614 2.11449 10.5302 
11.2629 2.13828 10.5452 
8.85617 2.23803 10.5418 
8.90875 2.29101 10.5684 
9.58157 2.29981 10.5657 
9.66792 2.29769 10.5304 
9.75327 2.29527 10.5586 
9.85884 2.2932 10.554 
9.96046 2.28989 10.5511 
10.0306 2.29057 10.5369 
10.1476 2.27848 10.5532 
10.2335 2.27503 10.5478 
10.3743 2.27489 10.5454 
10.4787 2.27578 10.5563 
10.567 2.28641 10.5392 
11.1742 2.2433 10.5606 
11.2029 2.2035 10.5687 
8.95463 2.34516 10.5445 
9.38799 2.35789 10.545 
9.42885 2.32712 10.5462 
9.53632 2.30278 10.5679 
9.61001 2.30021 10.529 
10.6518 2.33285 10.5411 
10.766 2.36552 10.5472 
10.8603 2.36538 10.5376 
10.9357 2.36202 10.5484 
11.0643 2.34602 10.5558 
11.1096 2.31077 10.5824 
9.05284 2.4149 10.5435 
9.15102 2.41657 10.5627 
9.25194 2.40802 10.56 
9.33145 2.40638 10.5603 
8.66403 3.08111 10.5603 
8.74933 3.07301 10.5413 
11.3779 3.09409 10.5669 
11.4667 3.09647 10.5754 
8.57615 3.16741 10.56 
8.63115 3.1071 10.5286 
8.785 3.13551 10.5371 
8.82143 3.1809 10.5841 
11.2817 3.15173 10.565 
11.3302 3.10986 10.5501 
11.4812 3.11714 10.5396 
11.524 3.17346 10.5504 
8.57533 3.26488 10.5562 
8.82768 3.25775 10.5829 
11.2834 3.24444 10.574 
11.3159 3.28026 10.5571 
11.4853 3.29226 10.5816 
11.5166 3.24207 10.5546 
8.59049 3.31604 10.5515 
8.64606 3.35514 10.5538 
8.76157 3.33742 10.5463 
11.3715 3.3082 10.552 
11.4268 3.30821 10.5551 
8.69061 -3.50145 10.6578 
11.3588 -3.54574 10.6477 
11.44 -3.53347 10.6585 
8.56949 -3.44477 10.6414 
8.63682 -3.49173 10.6489 
8.74704 -3.45625 10.6537 
11.0573 -3.40137 10.6921 
11.1627 -3.4062 10.6967 
11.244 -3.45591 10.6501 
11.4783 -3.46563 10.6626 
8.5291 -3.3557 10.6512 
8.84829 -3.36897 10.6482 
8.9462 -3.34118 10.6599 
11.0587 -3.35905 10.6619 
11.1497 -3.35486 10.6205 
11.4807 -3.35162 10.6607 
8.46323 -3.2093 10.6832 
8.51825 -3.24815 10.6297 
8.77745 -3.21588 10.6242 
8.85869 -3.23706 10.6536 
8.95409 -3.26441 10.6692 
9.00152 -3.26979 10.6984 
11.0663 -3.28244 10.6686 
11.1449 -3.26404 10.6346 
11.2152 -3.20996 10.6484 
11.4453 -3.2161 10.6131 
11.5379 -3.23824 10.6529 
8.46878 -3.12951 10.6549 
8.52538 -3.16007 10.6259 
8.66076 -3.12192 10.6488 
8.73473 -3.1768 10.6524 
11.266 -3.18911 10.6482 
11.3511 -3.18321 10.6519 
11.4643 -3.15361 10.6607 
11.5584 -3.16889 10.6661 
8.46666 -3.08191 10.6774 
8.53193 -3.08176 10.6706 
8.61444 -3.09631 10.6733 
11.5121 -3.0933 10.6929 
8.95252 -2.52893 10.6645 
9.05276 -2.54979 10.6297 
9.15137 -2.55005 10.6314 
9.24902 -2.5556 10.67 
9.34224 -2.55128 10.6352 
9.44426 -2.52955 10.6559 
10.5848 -2.53144 10.6348 
10.622 -2.55179 10.6359 
10.7505 -2.55804 10.6598 
10.8571 -2.55897 10.658 
10.961 -2.56521 10.6606 
11.051 -2.54276 10.6442 
8.85374 -2.43676 10.6433 
8.91085 -2.49637 10.6498 
9.5464 -2.46601 10.6571 
9.63849 -2.4518 10.6304 
9.76343 -2.45676 10.65 
9.85347 -2.45303 10.6351 
9.94806 -2.45787 10.6286 
10.0433 -2.46247 10.635 
10.1473 -2.46122 10.6301 
10.2451 -2.4553 10.6311 
10.3715 -2.4587 10.6558 
10.4556 -2.46725 10.6488 
10.5347 -2.47302 10.6362 
11.147 -2.45363 10.6467 
8.76657 -2.34132 10.654 
8.80975 -2.39217 10.6014 
11.2477 -2.34004 10.6417 
8.72277 -2.23351 10.6392 
11.2812 -2.23554 10.643 
8.68167 -2.11345 10.6798 
8.71124 -2.15941 10.6478 
11.2795 -2.13741 10.6334 
11.3145 -2.1238 10.6795 
8.6474 -2.04518 10.6449 
11.274 -2.04644 10.6533 
11.3202 -2.09759 10.6852 
8.55899 -1.94349 10.6553 
8.60627 -1.98853 10.6411 
11.1851 -1.92388 10.6226 
11.2358 -1.95848 10.6593 
11.3141 -1.99529 10.698 
8.45044 -1.85219 10.6653 
8.51984 -1.89831 10.6277 
11.1514 -1.84558 10.6306 
11.2226 -1.89203 10.6825 
8.29436 -1.7042 10.6686 
8.34489 -1.75753 10.6566 
8.40277 -1.79811 10.6309 
11.0827 -1.71377 10.6417 
11.129 -1.7752 10.6599 
13.1139 -1.71819 10.6833 
6.87672 -1.62607 10.6711 
6.95185 -1.63058 10.6844 
8.1908 -1.6103 10.6844 
8.24241 -1.64679 10.6489 
11.0468 -1.64739 10.6367 
11.6883 -1.62683 10.6958 
11.7556 -1.64028 10.694 
11.8207 -1.62196 10.6922 
13.0723 -1.66621 10.6716 
13.1547 -1.6441 10.654 
13.242 -1.61849 10.6563 
13.328 -1.61222 10.6464 
6.63695 -1.55155 10.6512 
6.7555 -1.56265 10.6433 
6.84762 -1.57595 10.649 
6.94654 -1.55161 10.6354 
7.00413 -1.5674 10.686 
8.13948 -1.53969 10.6508 
10.9375 -1.56574 10.6437 
11.0145 -1.59033 10.6696 
11.6549 -1.57966 10.6969 
11.753 -1.55585 10.6774 
11.8514 -1.55166 10.6732 
13.0796 -1.5522 10.6808 
13.1248 -1.54634 10.6371 
13.3972 -1.5788 10.6635 
13.4322 -1.53907 10.637 
6.57217 -1.4228 10.645 
6.94991 -1.46147 10.6452 
8.04567 -1.44656 10.6563 
8.10222 -1.49797 10.631 
11.384 -1.45259 10.6897 
11.416 -1.47441 10.6929 
11.653 -1.44932 10.6932 
11.7527 -1.44643 10.6786 
11.853 -1.45079 10.6639 
11.9434 -1.45231 10.6737 
12.0613 -1.40441 10.6762 
13.1138 -1.46279 10.6509 
13.399 -1.40849 10.6053 
13.4381 -1.46471 10.6499 
6.58459 -1.36741 10.6469 
6.62382 -1.32009 10.6423 
6.88257 -1.31675 10.6702 
6.91743 -1.37272 10.673 
7.77165 -1.32905 10.6331 
7.84202 -1.34622 10.6476 
7.94186 -1.36426 10.6356 
8.00628 -1.39645 10.6064 
11.6652 -1.36669 10.6913 
11.7385 -1.35931 10.6813 
11.8337 -1.36004 10.6629 
11.9478 -1.36949 10.6395 
12.049 -1.38694 10.6368 
12.1712 -1.36848 10.6615 
12.238 -1.36025 10.6336 
12.3084 -1.30185 10.6219 
13.1625 -1.34212 10.6507 
13.2687 -1.31578 10.6184 
13.3555 -1.36011 10.6467 
6.66858 -1.26084 10.6707 
6.763 -1.21267 10.6171 
6.84626 -1.25917 10.6541 
7.68118 -1.22258 10.6477 
7.72012 -1.2677 10.6527 
11.7659 -1.25172 10.6608 
11.8075 -1.26556 10.6529 
12.3614 -1.24645 10.6702 
12.405 -1.20356 10.6229 
13.1971 -1.27435 10.6813 
13.2497 -1.25574 10.6511 
13.3333 -1.25488 10.6599 
6.68664 -1.17291 10.673 
6.74752 -1.15542 10.6582 
6.82326 -1.17991 10.6928 
7.59259 -1.11572 10.6846 
7.62973 -1.16117 10.6437 
8.25847 -1.13183 10.6483 
12.4372 -1.16022 10.6481 
13.2463 -1.19906 10.6888 
7.56141 -1.06051 10.6455 
8.17816 -1.03876 10.6549 
8.21767 -1.07977 10.6403 
12.4698 -1.05497 10.647 
7.55225 -0.94572 10.6445 
8.08646 -0.94636 10.6793 
8.12494 -0.976508 10.654 
12.4745 -0.944338 10.6527 
7.55298 -0.853691 10.6592 
8.05108 -0.852917 10.6405 
12.4738 -0.852956 10.649 
7.56477 -0.743636 10.6679 
7.98265 -0.709285 10.6657 
8.00904 -0.763047 10.6571 
12.4351 -0.747264 10.6425 
7.59886 -0.690789 10.6672 
7.61791 -0.653063 10.6455 
7.95417 -0.649784 10.6597 
12.3875 -0.662376 10.6594 
7.65017 -0.526081 10.6511 
7.93193 -0.562468 10.637 
12.3648 -0.551231 10.6515 
7.65211 -0.45659 10.6537 
7.92612 -0.450648 10.6498 
12.3669 -0.450375 10.6628 
7.64746 -0.360224 10.6593 
7.95683 -0.345501 10.6696 
12.3705 -0.349826 10.6584 
7.65604 -0.25844 10.6349 
7.97837 -0.265789 10.6516 
8.01133 -0.214197 10.6857 
12.3714 -0.23501 10.6556 
7.64758 -0.141362 10.6443 
8.03227 -0.15648 10.6731 
12.3798 -0.14168 10.6513 
7.64067 -0.0421585 10.6485 
8.05862 -0.056308 10.6478 
12.3789 -0.0251999 10.6516 
7.64196 0.0429487 10.6495 
8.08472 0.0419796 10.6583 
8.10163 0.0957577 10.6827 
12.3804 0.0700259 10.6655 
7.64712 0.15777 10.6507 
8.09385 0.13803 10.6253 
8.10547 0.148403 10.6654 
12.3799 0.144596 10.6536 
7.64555 0.255011 10.6592 
8.11413 0.251387 10.6724 
12.3817 0.235116 10.6513 
7.638 0.352377 10.6653 
8.11411 0.338611 10.6541 
12.3861 0.342977 10.65 
7.63571 0.448053 10.6364 
8.11458 0.437858 10.6485 
12.3907 0.409779 10.626 
12.4262 0.471023 10.6479 
7.5892 0.586844 10.6653 
7.61087 0.531289 10.6332 
8.1155 0.548302 10.6486 
12.4774 0.550967 10.6527 
7.57334 0.62587 10.6672 
8.11594 0.647073 10.6458 
12.4938 0.669683 10.6426 
7.56237 0.745731 10.6369 
8.1523 0.760441 10.651 
12.495 0.750151 10.6693 
7.56308 0.846216 10.6415 
8.18396 0.839943 10.6495 
8.20599 0.898639 10.6197 
12.4895 0.860205 10.6534 
6.76409 0.998107 10.69 
6.80121 0.998722 10.6922 
7.56605 0.953361 10.6524 
8.22383 0.941845 10.6537 
12.3893 0.996404 10.6994 
12.4549 0.925417 10.659 
6.6949 1.06208 10.6823 
6.75253 1.04428 10.6455 
6.83457 1.06222 10.6654 
7.59674 1.01134 10.6058 
7.64217 1.05506 10.6401 
8.26795 1.05519 10.6181 
12.2979 1.09067 10.6742 
12.3324 1.05514 10.6419 
13.267 1.04544 10.6871 
13.3269 1.02957 10.6917 
6.6892 1.15724 10.6546 
6.75826 1.12471 10.6121 
6.8577 1.14233 10.6409 
7.69599 1.12322 10.6171 
7.72583 1.15817 10.6514 
7.85994 1.19833 10.6538 
7.9003 1.19721 10.6466 
8.29734 1.12035 10.6615 
8.31653 1.16061 10.6408 
12.145 1.16621 10.6612 
12.2526 1.127 10.6538 
13.1889 1.16172 10.6574 
13.2343 1.12837 10.6406 
13.3558 1.13752 10.6454 
13.4208 1.19038 10.6412 
6.6358 1.26712 10.6449 
6.89173 1.26478 10.625 
6.90729 1.25677 10.6661 
7.78319 1.20639 10.6455 
7.81864 1.21122 10.6502 
7.96172 1.23129 10.6532 
8.02924 1.28509 10.6537 
8.36918 1.24717 10.6196 
11.994 1.29394 10.6743 
12.0602 1.22421 10.6492 
12.1073 1.20323 10.6906 
13.1476 1.25293 10.6403 
13.4653 1.26059 10.6393 
6.59695 1.36433 10.6272 
6.6161 1.31325 10.646 
6.89008 1.38206 10.6095 
6.93083 1.34739 10.6594 
8.06884 1.32099 10.6506 
8.12452 1.37383 10.6582 
8.45454 1.34907 10.657 
11.8935 1.39124 10.6564 
11.9471 1.33844 10.6514 
13.1391 1.35758 10.658 
13.2462 1.392 10.6275 
13.3566 1.38928 10.6454 
13.4481 1.34085 10.6603 
6.65549 1.41925 10.6568 
6.74367 1.42943 10.6476 
6.84248 1.43548 10.6467 
6.9557 1.44278 10.6568 
7.01047 1.47448 10.6855 
8.17261 1.42584 10.6554 
8.21978 1.47792 10.6453 
8.4841 1.4066 10.6114 
8.54349 1.45673 10.6563 
11.8588 1.42859 10.6633 
13.0935 1.42729 10.6858 
13.1616 1.4431 10.6693 
13.24 1.42367 10.6833 
6.94307 1.53259 10.6757 
7.02256 1.50877 10.6974 
8.27574 1.55092 10.677 
8.31282 1.58261 10.6425 
8.57555 1.50182 10.6329 
8.6608 1.568 10.6571 
11.7421 1.55003 10.6551 
8.36654 1.64685 10.6556 
8.42013 1.67775 10.6366 
8.69948 1.61195 10.6446 
8.73692 1.64304 10.6655 
11.6474 1.64499 10.6596 
8.45506 1.72402 10.6573 
8.5157 1.7755 10.6469 
8.78014 1.70824 10.6346 
8.82839 1.75569 10.6512 
11.0796 1.78608 10.6998 
11.1198 1.75325 10.6626 
11.5566 1.73259 10.655 
8.56422 1.82408 10.6507 
8.61807 1.87837 10.6618 
8.88647 1.82053 10.6321 
8.93845 1.85999 10.654 
9.85088 1.89378 10.6554 
9.938 1.89313 10.6453 
10.0167 1.89857 10.6843 
11.0618 1.84932 10.6421 
11.4358 1.86145 10.6411 
8.67003 1.93313 10.6788 
8.71435 1.97582 10.6386 
8.98492 1.90407 10.6221 
9.0505 1.93045 10.644 
9.16381 1.98242 10.6485 
9.2656 1.99438 10.6608 
9.35496 1.98376 10.6433 
9.4593 1.96206 10.6522 
9.55461 1.94593 10.6422 
9.65803 1.92199 10.6666 
9.74028 1.91238 10.6381 
10.0381 1.90819 10.6231 
10.1456 1.93841 10.6448 
10.2371 1.97542 10.6474 
10.3336 1.99463 10.6955 
10.8629 1.9976 10.6884 
10.93 1.96673 10.6882 
11.0217 1.94388 10.632 
11.3578 1.9522 10.6381 
8.75669 2.04608 10.6661 
9.19176 2.00135 10.6054 
9.24781 2.00474 10.6308 
10.2754 2.00338 10.6057 
10.3488 2.02068 10.6314 
10.466 2.03434 10.6492 
10.5537 2.03924 10.6475 
10.6546 2.04864 10.6363 
10.7626 2.05898 10.6464 
10.8521 2.06459 10.6422 
10.9432 2.04269 10.6379 
11.2958 2.0636 10.6688 
11.3114 2.03346 10.6436 
8.7746 2.16028 10.6466 
8.81187 2.19086 10.6325 
10.8502 2.10435 10.6047 
10.9018 2.10114 10.6109 
11.2486 2.15836 10.6463 
8.85796 2.2402 10.6675 
8.91347 2.29354 10.6406 
9.67914 2.2983 10.6281 
9.75206 2.29575 10.6337 
9.85051 2.29376 10.6212 
9.92787 2.29103 10.6176 
10.0471 2.29955 10.6165 
10.1337 2.28312 10.6219 
10.2382 2.29051 10.6443 
10.3571 2.28622 10.6354 
10.4433 2.28809 10.669 
10.5422 2.28666 10.648 
11.1614 2.25621 10.6328 
11.2098 2.20425 10.6746 
8.96105 2.34922 10.6511 
9.37829 2.37802 10.6558 
9.45846 2.32698 10.6525 
9.54659 2.30797 10.6415 
9.62696 2.30357 10.6519 
9.73647 2.30504 10.6782 
9.85789 2.31149 10.6862 
9.94827 2.30872 10.6752 
10.0733 2.30658 10.6633 
10.1141 2.30384 10.6809 
10.2486 2.30227 10.6837 
10.5875 2.30078 10.6645 
10.6429 2.32581 10.6701 
10.7566 2.36535 10.6636 
10.8603 2.3681 10.6522 
10.9369 2.36384 10.6445 
11.0477 2.345 10.6482 
11.1093 2.305 10.6406 
9.05161 2.41404 10.6411 
9.15632 2.41751 10.6425 
9.24221 2.4083 10.6616 
9.33382 2.40519 10.6507 
8.48218 2.99964 10.668 
8.55368 2.97405 10.6781 
11.5849 2.98702 10.6901 
11.6108 2.9961 10.6848 
8.47691 3.05474 10.6649 
8.54114 3.04836 10.6369 
8.65128 3.04718 10.6275 
8.74979 3.08138 10.6459 
11.3702 3.08737 10.669 
11.4288 3.07378 10.6403 
11.5468 3.04726 10.6603 
11.6185 3.04001 10.6751 
8.538 3.13634 10.6719 
8.77604 3.10345 10.6356 
8.83723 3.15233 10.6474 
8.9474 3.17782 10.6687 
11.1512 3.17662 10.6564 
11.2434 3.142 10.6449 
11.3408 3.10226 10.6465 
11.5352 3.1439 10.6413 
8.574 3.24399 10.6307 
8.8628 3.28316 10.6362 
8.94322 3.25818 10.6507 
9.01963 3.24581 10.6839 
11.0872 3.23234 10.6984 
11.1512 3.23172 10.6542 
11.2554 3.26776 10.6446 
11.314 3.29665 10.6578 
11.486 3.29003 10.6842 
11.524 3.23448 10.643 
8.59487 3.31082 10.628 
8.64627 3.33724 10.6474 
8.75024 3.32991 10.658 
8.83062 3.30535 10.6899 
11.3644 3.31437 10.6371 
11.4576 3.31104 10.674 
8.65166 -3.50363 10.76 
8.70182 -3.50249 10.7332 
11.2946 -3.5158 10.7472 
11.3527 -3.54578 10.7541 
11.4332 -3.53707 10.7413 
8.55693 -3.43655 10.7394 
8.61666 -3.49447 10.7675 
8.73569 -3.46964 10.7584 
8.80231 -3.40191 10.7754 
10.9691 -3.4047 10.7731 
11.0529 -3.40543 10.7463 
11.1584 -3.4069 10.7592 
11.2441 -3.45887 10.7554 
11.4693 -3.44595 10.7533 
8.52448 -3.34801 10.7371 
8.84366 -3.39502 10.7594 
8.97093 -3.39219 10.7465 
9.05187 -3.35458 10.753 
9.14461 -3.35926 10.7738 
9.23949 -3.34497 10.7698 
9.313 -3.30722 10.7819 
10.6919 -3.3317 10.7858 
10.747 -3.33038 10.7657 
10.8507 -3.37032 10.7728 
10.953 -3.35333 10.7433 
11.0123 -3.35941 10.7134 
11.4806 -3.35783 10.7507 
8.48099 -3.23438 10.7474 
8.51443 -3.28298 10.7046 
8.96275 -3.20293 10.7234 
9.04904 -3.24465 10.7423 
9.14061 -3.24808 10.773 
9.26956 -3.26809 10.7842 
10.7488 -3.26416 10.7903 
10.865 -3.24256 10.7837 
10.9378 -3.24617 10.7723 
11.0487 -3.22889 10.7474 
11.1168 -3.22215 10.7177 
11.5405 -3.26423 10.7593 
11.6007 -3.20723 10.7749 
8.38404 -3.11835 10.7473 
8.42352 -3.16813 10.7285 
8.74808 -3.13731 10.7305 
8.84769 -3.15721 10.755 
8.93912 -3.17342 10.7609 
9.0168 -3.18788 10.7694 
11.1466 -3.13457 10.7747 
11.2336 -3.14831 10.7451 
11.3667 -3.13865 10.7321 
11.4133 -3.129 10.716 
11.5939 -3.13103 10.7088 
11.6348 -3.15037 10.7448 
8.28528 -3.01968 10.7953 
8.34379 -3.05022 10.7646 
8.43347 -3.02835 10.7269 
8.54714 -3.02806 10.7471 
8.66105 -3.0351 10.7732 
8.75104 -3.0529 10.7729 
8.85744 -3.05416 10.7857 
8.90771 -3.07728 10.7995 
11.0916 -3.04471 10.7881 
11.1626 -3.05629 10.7642 
11.243 -3.063 10.7636 
11.3518 -3.05706 10.7798 
11.4573 -3.06277 10.7536 
11.546 -3.04716 10.7416 
11.6559 -3.05005 10.7438 
11.7479 -3.02852 10.7808 
8.25673 -2.94752 10.7734 
8.35263 -2.95954 10.759 
8.45354 -2.97006 10.7677 
8.51208 -2.99534 10.7707 
8.68928 -2.96432 10.7929 
8.7606 -2.95463 10.7813 
8.84321 -2.95259 10.7867 
8.91505 -2.91845 10.7916 
11.0687 -2.94039 10.7708 
11.1417 -2.95001 10.7565 
11.2511 -2.95994 10.7659 
11.6725 -2.96149 10.7744 
11.7554 -2.95666 10.7621 
11.8182 -2.93689 10.7782 
8.24257 -2.86064 10.7764 
8.33782 -2.87368 10.784 
8.77256 -2.8681 10.7856 
8.85997 -2.85326 10.7839 
8.91853 -2.85138 10.7868 
11.0523 -2.86304 10.7654 
11.1478 -2.85304 10.755 
11.2333 -2.84991 10.7662 
8.78322 -2.74584 10.7906 
8.83302 -2.73075 10.7861 
8.93078 -2.75061 10.7856 
10.979 -2.7324 10.7863 
11.0544 -2.74728 10.7535 
11.1429 -2.75087 10.7527 
11.212 -2.75418 10.7754 
8.84522 -2.67447 10.7908 
8.95934 -2.64574 10.7899 
9.0086 -2.64051 10.799 
10.9675 -2.64469 10.7645 
11.0413 -2.66014 10.7548 
11.1582 -2.65209 10.7663 
8.88997 -2.57685 10.7935 
8.92947 -2.54025 10.7635 
9.05154 -2.55029 10.7184 
9.14197 -2.55301 10.7438 
9.25673 -2.55559 10.7547 
9.34286 -2.55304 10.7425 
9.46291 -2.52514 10.7509 
10.5859 -2.53092 10.7531 
10.6493 -2.5562 10.7649 
10.7296 -2.55862 10.76 
10.8456 -2.55573 10.7392 
10.9494 -2.59029 10.7586 
11.0659 -2.54399 10.7256 
11.1547 -2.55919 10.7878 
8.85559 -2.43967 10.7447 
8.90672 -2.49042 10.7109 
9.55083 -2.46415 10.7414 
9.65653 -2.44408 10.7381 
9.75022 -2.44071 10.7609 
9.86615 -2.44551 10.74 
9.96548 -2.44812 10.7423 
10.0557 -2.45135 10.7449 
10.1522 -2.45662 10.7466 
10.2432 -2.44706 10.7551 
10.35 -2.44561 10.7561 
10.4808 -2.4604 10.7396 
10.5324 -2.47446 10.7508 
11.1533 -2.45942 10.7645 
8.77253 -2.34976 10.7402 
8.80728 -2.38672 10.7417 
11.2308 -2.36368 10.7549 
8.72288 -2.24461 10.7567 
11.2859 -2.24866 10.762 
8.69494 -2.13966 10.7422 
8.71535 -2.17796 10.7797 
11.3308 -2.12737 10.7543 
8.59394 -2.0072 10.7409 
8.62851 -2.05668 10.7473 
11.3638 -2.05182 10.733 
11.4142 -2.01901 10.7565 
8.53663 -1.94569 10.751 
11.2628 -1.90125 10.701 
11.3612 -1.94468 10.7108 
11.4539 -1.94031 10.7481 
11.5306 -1.91689 10.7544 
7.15388 -1.84269 10.7626 
7.22591 -1.82835 10.7897 
8.39107 -1.80646 10.7297 
8.44881 -1.86579 10.7396 
11.2531 -1.85479 10.7105 
11.3347 -1.83898 10.7211 
11.4473 -1.85581 10.7238 
11.5426 -1.85961 10.7354 
11.6327 -1.83016 10.7617 
12.8539 -1.85674 10.7899 
12.9254 -1.8408 10.7798 
13.0098 -1.80936 10.7784 
6.97473 -1.7219 10.7809 
7.04989 -1.75432 10.7559 
7.14598 -1.75946 10.7577 
7.20825 -1.76713 10.7924 
8.29487 -1.70135 10.7544 
8.35763 -1.76648 10.7655 
11.168 -1.73946 10.7219 
11.2443 -1.74134 10.7376 
11.3591 -1.75786 10.7314 
11.4381 -1.75886 10.7271 
11.553 -1.75303 10.7134 
11.6621 -1.74867 10.7317 
11.7213 -1.72869 10.7771 
12.8911 -1.77564 10.7907 
12.9437 -1.7802 10.7699 
13.0474 -1.7584 10.7559 
13.1116 -1.73384 10.755 
6.87513 -1.63045 10.7394 
6.93438 -1.67806 10.752 
7.04964 -1.665 10.7299 
7.14431 -1.6504 10.7817 
8.25103 -1.64657 10.7476 
11.0619 -1.61354 10.7268 
11.157 -1.65657 10.7494 
11.2552 -1.65108 10.7528 
11.378 -1.63093 10.7396 
11.4231 -1.63038 10.7337 
11.5351 -1.61726 10.7225 
11.645 -1.65692 10.7063 
11.7498 -1.68061 10.7514 
11.826 -1.62936 10.7848 
12.9545 -1.67811 10.7799 
13.0203 -1.64781 10.7258 
13.1721 -1.66947 10.7517 
13.246 -1.62404 10.7466 
13.3171 -1.60898 10.7482 
6.59741 -1.50626 10.7117 
6.65005 -1.5546 10.7476 
6.75483 -1.56467 10.762 
6.82171 -1.57999 10.752 
7.05968 -1.53966 10.7478 
7.10855 -1.55765 10.7879 
8.14879 -1.55367 10.7516 
8.20429 -1.59862 10.759 
11.0563 -1.59268 10.7509 
11.2865 -1.57608 10.753 
11.3492 -1.54756 10.7335 
11.4498 -1.55219 10.7234 
11.5375 -1.55654 10.7207 
11.6239 -1.57491 10.7035 
11.877 -1.58225 10.7531 
11.9288 -1.51814 10.7742 
12.9878 -1.56757 10.7917 
13.0314 -1.55283 10.7467 
13.372 -1.58995 10.7204 
13.4182 -1.54774 10.7378 
6.57845 -1.44916 10.7561 
6.97746 -1.43745 10.7131 
7.03321 -1.4526 10.7566 
7.98521 -1.40053 10.7793 
8.04377 -1.44407 10.7331 
11.2962 -1.47826 10.7536 
11.3499 -1.49459 10.7182 
11.4697 -1.45902 10.7098 
11.5494 -1.44488 10.7094 
11.6031 -1.4816 10.701 
11.9779 -1.46642 10.7497 
12.0214 -1.42394 10.7604 
12.9677 -1.46091 10.7953 
13.0417 -1.43893 10.7746 
13.1043 -1.43662 10.7262 
13.4311 -1.46799 10.7643 
6.57708 -1.37688 10.742 
6.62097 -1.32101 10.7478 
6.96019 -1.35595 10.7388 
7.05715 -1.35885 10.764 
7.13257 -1.34018 10.772 
7.2242 -1.3161 10.7829 
7.77621 -1.33489 10.7568 
7.85658 -1.34476 10.75 
7.9417 -1.37077 10.7606 
11.5809 -1.3743 10.7032 
12.0742 -1.37942 10.7432 
12.1602 -1.35584 10.7455 
12.247 -1.35639 10.7532 
12.3041 -1.30318 10.7441 
12.7647 -1.33532 10.7903 
12.845 -1.33506 10.7918 
12.9419 -1.35122 10.7914 
13.0596 -1.34653 10.7808 
13.1331 -1.34239 10.7445 
13.3603 -1.37145 10.7385 
6.66561 -1.25379 10.7542 
6.86616 -1.22702 10.7307 
6.94218 -1.24325 10.7472 
7.03899 -1.25162 10.7511 
7.15624 -1.25656 10.7542 
7.23627 -1.23861 10.7579 
7.35323 -1.2412 10.7733 
7.41674 -1.2151 10.771 
7.66971 -1.21284 10.7369 
7.71536 -1.26528 10.7637 
12.3502 -1.2609 10.7542 
12.4148 -1.21062 10.7746 
12.5614 -1.24239 10.7961 
12.661 -1.26976 10.7928 
12.7626 -1.24189 10.7921 
12.8433 -1.24625 10.7958 
12.9461 -1.26795 10.7953 
13.1713 -1.26678 10.7456 
13.2126 -1.22269 10.7091 
13.3439 -1.25016 10.7594 
6.67557 -1.14301 10.7479 
6.75124 -1.10533 10.707 
6.84569 -1.14419 10.744 
6.98846 -1.17517 10.7796 
7.05436 -1.1684 10.7617 
7.14565 -1.14716 10.7525 
7.26034 -1.14947 10.7551 
7.34307 -1.14152 10.7613 
7.45512 -1.1612 10.7695 
7.56193 -1.12912 10.7721 
7.6261 -1.1604 10.7265 
8.19427 -1.12563 10.7889 
8.22435 -1.13397 10.7443 
12.4548 -1.15906 10.7647 
12.5522 -1.17102 10.7976 
12.6476 -1.16668 10.7929 
13.1861 -1.17568 10.7828 
13.2424 -1.15242 10.7428 
13.3281 -1.16032 10.751 
6.67946 -1.06367 10.7708 
6.74916 -1.07756 10.7153 
6.84539 -1.05186 10.7655 
7.27349 -1.06601 10.7714 
7.35031 -1.04761 10.7724 
7.44796 -1.06032 10.7656 
7.55076 -1.05741 10.7275 
8.08752 -1.00442 10.781 
8.14031 -1.05389 10.7662 
12.4691 -1.0735 10.7412 
13.255 -1.06181 10.7669 
13.3101 -1.06001 10.7729 
6.68997 -0.965389 10.777 
6.7479 -0.943345 10.7541 
6.8184 -0.965548 10.7639 
7.46271 -0.978319 10.7844 
7.53477 -0.957073 10.7484 
8.05282 -0.943662 10.7485 
12.4786 -0.953779 10.7524 
13.2586 -0.947081 10.7863 
13.31 -0.943956 10.7939 
6.68978 -0.836453 10.7924 
6.75459 -0.860619 10.7608 
6.82557 -0.884308 10.7838 
7.55066 -0.843569 10.7515 
8.02391 -0.875575 10.7509 
12.473 -0.849879 10.7582 
13.2773 -0.886949 10.7797 
13.3044 -0.868128 10.7872 
7.56502 -0.748572 10.7557 
7.97857 -0.745775 10.7453 
8.00844 -0.789657 10.7072 
12.3961 -0.710785 10.732 
12.4491 -0.761413 10.7716 
7.61996 -0.659126 10.7326 
7.94762 -0.651522 10.7394 
12.385 -0.647395 10.7409 
12.4012 -0.683394 10.7768 
7.64857 -0.532142 10.7506 
7.9363 -0.573451 10.7441 
12.3736 -0.549011 10.7507 
7.64786 -0.469704 10.74 
7.93591 -0.457984 10.7329 
12.3746 -0.444445 10.7575 
7.64517 -0.363489 10.7498 
7.97428 -0.360956 10.7408 
8.01109 -0.312178 10.7891 
12.3804 -0.339816 10.7662 
7.65534 -0.253202 10.7632 
7.99889 -0.278787 10.7219 
8.02431 -0.258983 10.772 
12.3782 -0.246859 10.7507 
7.64969 -0.149343 10.7427 
8.06109 -0.14444 10.7533 
12.3819 -0.152567 10.7645 
7.64361 -0.0364602 10.7507 
8.08806 -0.0446871 10.7642 
12.3844 -0.0601315 10.7482 
7.64055 0.050764 10.7492 
8.08926 0.00342342 10.7184 
8.11008 0.0627202 10.7619 
12.3859 0.0498095 10.7613 
7.64045 0.139103 10.747 
8.11462 0.124164 10.7436 
12.3875 0.142042 10.735 
7.64508 0.254973 10.7437 
8.11682 0.252973 10.7491 
12.3939 0.233208 10.7421 
7.64084 0.349957 10.7318 
8.11593 0.35038 10.7512 
12.3959 0.335776 10.7544 
12.4026 0.385927 10.7406 
7.63383 0.437239 10.7481 
8.11501 0.44637 10.7526 
12.4224 0.450121 10.7476 
7.58588 0.596634 10.7779 
7.61543 0.529747 10.7498 
8.11353 0.546583 10.7526 
12.4711 0.539854 10.7417 
6.76844 0.681607 10.7858 
6.81467 0.682693 10.796 
7.57091 0.634078 10.7553 
8.11057 0.643785 10.7619 
12.4896 0.643317 10.7579 
6.74701 0.755454 10.773 
6.81705 0.736243 10.7782 
7.56228 0.761291 10.7567 
8.14339 0.747735 10.7485 
12.494 0.735718 10.7603 
6.69614 0.878551 10.7892 
6.7429 0.879045 10.7582 
6.83541 0.853353 10.7683 
7.4643 0.89926 10.7985 
7.54896 0.872575 10.7618 
8.17596 0.821939 10.7482 
8.20603 0.8907 10.7294 
12.4887 0.864165 10.7462 
13.267 0.875917 10.7934 
13.3227 0.894308 10.7994 
6.69611 0.957033 10.7834 
6.73373 0.955874 10.7315 
6.85781 0.941921 10.7514 
6.91927 0.959971 10.7886 
7.27224 0.985774 10.7786 
7.37908 0.972819 10.7719 
7.47877 0.938672 10.7824 
7.56038 0.95362 10.7399 
8.23354 0.959811 10.7512 
12.3928 0.99158 10.7543 
12.4418 0.942723 10.7409 
13.1863 0.991307 10.785 
13.261 0.945993 10.7628 
13.3319 0.969872 10.7494 
6.69312 1.04483 10.7611 
6.88635 1.0497 10.719 
6.94822 1.04997 10.7698 
7.04804 1.07352 10.7732 
7.15155 1.06152 10.7694 
7.26668 1.06083 10.7629 
7.34683 1.04433 10.7656 
7.45836 1.06391 10.7725 
7.56519 1.03958 10.7629 
7.63344 1.05504 10.7509 
8.26652 1.04329 10.7597 
12.3513 1.03635 10.7573 
12.8934 1.08252 10.7967 
12.9605 1.08282 10.7978 
13.0661 1.07325 10.7993 
13.1729 1.05769 10.7627 
13.2126 1.03921 10.7272 
13.3501 1.05073 10.7588 
6.68558 1.16006 10.7409 
6.94359 1.16384 10.7303 
7.05099 1.15812 10.753 
7.14112 1.14181 10.7579 
7.26621 1.16961 10.7647 
7.35437 1.13415 10.7677 
7.44754 1.12172 10.7767 
7.53055 1.10349 10.798 
7.68798 1.10842 10.7481 
7.74749 1.16749 10.7611 
7.87236 1.1983 10.7488 
8.29248 1.10768 10.7538 
8.31575 1.1512 10.7468 
12.1456 1.16917 10.76 
12.253 1.1345 10.7537 
12.9549 1.14573 10.7974 
13.0574 1.16594 10.7868 
13.1326 1.1466 10.7578 
13.374 1.15174 10.7303 
13.4079 1.19073 10.7531 
6.6318 1.25432 10.7516 
6.95072 1.23748 10.7206 
7.03974 1.26204 10.7543 
7.14537 1.24328 10.7682 
7.25323 1.22493 10.7889 
7.79337 1.20075 10.7736 
7.82782 1.20272 10.754 
7.9472 1.2245 10.7527 
8.01373 1.27242 10.7744 
8.3721 1.21861 10.7498 
8.42633 1.28109 10.7518 
12.0534 1.25197 10.758 
12.1062 1.21572 10.7249 
13.0624 1.23396 10.7812 
13.1222 1.23742 10.7247 
13.4494 1.2335 10.7467 
6.59617 1.36019 10.7593 
6.6082 1.37049 10.7587 
6.96754 1.33223 10.7221 
7.03459 1.35939 10.766 
8.06934 1.33143 10.7595 
8.12282 1.37501 10.7623 
8.47332 1.34384 10.745 
8.51612 1.38777 10.7416 
11.8959 1.39942 10.7094 
11.9468 1.35213 10.7429 
13.0685 1.35141 10.7429 
13.2856 1.39939 10.7964 
13.3514 1.39185 10.7425 
13.4468 1.33995 10.7607 
6.65643 1.42149 10.7583 
6.74675 1.43269 10.7427 
6.85244 1.46555 10.7362 
7.04597 1.42517 10.7412 
7.11506 1.49284 10.773 
8.16884 1.42022 10.7773 
8.21937 1.47363 10.7496 
8.55677 1.4419 10.7413 
8.61891 1.49621 10.7663 
11.8494 1.45021 10.7567 
12.9883 1.4836 10.7909 
13.0519 1.45317 10.7442 
13.1735 1.48423 10.7399 
13.2286 1.42567 10.761 
6.94485 1.54791 10.7486 
7.06693 1.553 10.7434 
7.14707 1.55976 10.7741 
8.27673 1.53677 10.7527 
8.30731 1.56964 10.7513 
8.64504 1.52266 10.7347 
8.72635 1.58512 10.7555 
11.7563 1.5439 10.7493 
12.9752 1.55607 10.7876 
13.0568 1.53966 10.7758 
13.1225 1.51309 10.7505 
7.0596 1.64437 10.781 
7.16368 1.64573 10.7722 
7.2221 1.65656 10.7835 
8.38435 1.63222 10.7462 
8.42756 1.66602 10.7587 
8.76052 1.63234 10.7432 
8.82016 1.68444 10.789 
11.6565 1.64959 10.7439 
12.8806 1.66444 10.7964 
12.9013 1.64143 10.7998 
13.017 1.60396 10.7941 
7.16162 1.72724 10.784 
7.23699 1.72414 10.779 
8.48434 1.73288 10.7997 
8.52533 1.78155 10.7682 
8.84072 1.7312 10.744 
8.90151 1.79551 10.7631 
11.0761 1.77152 10.7287 
11.1037 1.73804 10.7317 
11.5398 1.75866 10.7467 
11.6037 1.70437 10.7726 
8.56362 1.82329 10.7485 
8.62601 1.87546 10.7405 
8.95082 1.84254 10.7529 
9.02645 1.8874 10.7588 
9.84874 1.89071 10.7543 
9.946 1.88928 10.7616 
10.0083 1.89631 10.725 
10.1114 1.89694 10.7855 
10.8775 1.89258 10.7882 
10.9518 1.87152 10.757 
11.0246 1.82824 10.7295 
11.4531 1.8497 10.7446 
8.67663 1.92932 10.7602 
8.71002 1.96695 10.7602 
9.08152 1.9178 10.7491 
9.16012 1.96268 10.7497 
9.23978 1.98264 10.7537 
9.34027 1.96245 10.7615 
9.44606 1.94843 10.7363 
9.5612 1.9288 10.7467 
9.64752 1.91702 10.744 
9.75306 1.90318 10.7507 
10.0941 1.90422 10.7277 
10.1453 1.91292 10.7457 
10.2472 1.95256 10.744 
10.3303 1.98364 10.7503 
10.4415 1.99886 10.7851 
10.5236 1.99486 10.7905 
10.6353 1.98058 10.7754 
10.75 1.97228 10.7453 
10.848 1.93955 10.7521 
10.9052 1.92334 10.736 
11.362 1.94426 10.7561 
8.76941 2.04719 10.7705 
10.382 2.00366 10.7502 
10.4443 2.01407 10.711 
10.5527 2.00578 10.7327 
10.6605 2.00499 10.7276 
10.7264 2.01119 10.7075 
11.2897 2.06707 10.7478 
11.3143 2.01225 10.7565 
8.76912 2.13215 10.7492 
11.2645 2.13556 10.761 
8.85595 2.24126 10.75 
8.90508 2.29403 10.7365 
9.57287 2.29905 10.7598 
9.62554 2.29914 10.7661 
9.85167 2.29457 10.7778 
9.94791 2.2951 10.7742 
10.0371 2.29702 10.7819 
10.1572 2.29169 10.7702 
10.2416 2.29523 10.7607 
10.3518 2.29339 10.7446 
10.4504 2.29022 10.7529 
10.5526 2.29279 10.7615 
11.1602 2.26096 10.7461 
11.2084 2.20735 10.7859 
8.94055 2.34196 10.7594 
9.01041 2.39876 10.7429 
9.38057 2.37429 10.7486 
9.45178 2.32239 10.7501 
9.52135 2.30788 10.7355 
9.68613 2.30117 10.753 
9.75531 2.3094 10.7443 
9.84325 2.30251 10.7424 
9.94576 2.30918 10.7276 
10.0375 2.30865 10.7363 
10.1156 2.30144 10.736 
10.283 2.30049 10.754 
10.3122 2.30125 10.7112 
10.5997 2.30192 10.7879 
10.6322 2.31547 10.7415 
10.7407 2.36727 10.7551 
10.8534 2.37216 10.7646 
10.9431 2.37134 10.7603 
11.0621 2.35593 10.7479 
11.1188 2.31411 10.7486 
8.89147 2.44477 10.7909 
8.93599 2.43732 10.7809 
9.05042 2.4267 10.749 
9.15869 2.41428 10.7637 
9.22947 2.40752 10.7462 
9.33598 2.40596 10.7492 
11.0637 2.46673 10.798 
11.1048 2.48571 10.7995 
8.89301 2.53042 10.7791 
8.95498 2.55338 10.7787 
9.01473 2.55323 10.7799 
11.0849 2.55644 10.7958 
11.1276 2.54109 10.796 
11.2049 2.57864 10.7933 
8.78128 2.69008 10.7951 
8.86025 2.65032 10.781 
8.96107 2.64799 10.7793 
9.01535 2.63998 10.7829 
11.0848 2.62424 10.7978 
11.1548 2.63316 10.7942 
11.2273 2.64056 10.7981 
8.25628 2.76863 10.7799 
8.35095 2.7599 10.7894 
8.77808 2.77213 10.7787 
8.84252 2.73864 10.7773 
8.96284 2.75829 10.7858 
11.1777 2.74683 10.7954 
11.2352 2.75445 10.7968 
11.8071 2.7937 10.7998 
8.29333 2.84864 10.7833 
8.3483 2.85768 10.7609 
8.45303 2.87154 10.7577 
8.52988 2.86263 10.779 
8.66214 2.88915 10.786 
8.74187 2.83996 10.7797 
8.86541 2.85642 10.7746 
8.92545 2.84166 10.7811 
11.1798 2.84199 10.7908 
11.2451 2.84913 10.7924 
11.3273 2.83487 10.7981 
11.6739 2.86582 10.7882 
11.7451 2.84285 10.7971 
8.36672 2.94547 10.7692 
8.46011 2.93081 10.7309 
8.54237 2.93983 10.719 
8.64258 2.9394 10.7632 
8.76768 2.97391 10.7683 
8.85717 2.94642 10.7719 
8.90987 2.94127 10.7832 
11.2604 2.95313 10.7892 
11.3433 2.95991 10.7859 
11.467 2.9662 10.7606 
11.5433 2.96063 10.735 
11.6623 2.9728 10.7575 
11.7128 2.9322 10.7855 
8.45723 3.05574 10.7467 
8.67581 3.0005 10.7372 
8.75575 3.04022 10.7334 
8.85655 3.03243 10.7692 
8.91467 3.06187 10.7845 
11.0575 3.07886 10.7919 
11.1376 3.078 10.7688 
11.2485 3.06786 10.7471 
11.3538 3.02736 10.7581 
11.444 3.02587 10.7194 
11.5942 3.08984 10.7576 
11.6356 3.04584 10.7564 
8.5401 3.15111 10.756 
8.84761 3.11487 10.7191 
8.95619 3.14028 10.7286 
9.04573 3.17011 10.7421 
9.16276 3.16719 10.7821 
9.25515 3.18901 10.7827 
10.8491 3.16792 10.7824 
10.9265 3.17427 10.7768 
11.0445 3.14276 10.7467 
11.1336 3.11681 10.7148 
11.2104 3.10272 10.7091 
11.5522 3.14853 10.758 
8.57197 3.24279 10.7457 
9.06407 3.26176 10.7425 
9.1568 3.2503 10.766 
9.23448 3.27198 10.7817 
9.32197 3.24019 10.7895 
10.8599 3.24735 10.7851 
10.965 3.2439 10.7687 
11.0532 3.25774 10.7508 
11.1547 3.27349 10.7326 
11.2598 3.27781 10.7484 
11.3151 3.29325 10.732 
11.4882 3.29226 10.7369 
11.5269 3.24488 10.7626 
8.59305 3.305 10.7496 
8.65364 3.33777 10.7532 
8.75343 3.32696 10.7592 
8.86053 3.30535 10.7407 
8.97571 3.30174 10.7462 
9.02572 3.30077 10.7803 
11.3581 3.30685 10.7547 
11.4482 3.31232 10.7446 
8.59973 -3.50144 10.8721 
8.64738 -3.5038 10.841 
11.2932 -3.51527 10.8659 
11.348 -3.54485 10.8391 
11.439 -3.52589 10.8319 
8.55123 -3.45696 10.8527 
8.67148 -3.49333 10.8495 
8.74998 -3.45113 10.8546 
8.80272 -3.40735 10.8973 
10.6894 -3.40072 10.8724 
10.7498 -3.40409 10.8475 
10.8542 -3.40422 10.84 
10.9508 -3.40583 10.8425 
11.0617 -3.40562 10.856 
11.1638 -3.40815 10.8346 
11.2219 -3.44576 10.8623 
11.4885 -3.42577 10.8596 
8.51487 -3.35543 10.8413 
8.82208 -3.39687 10.8483 
8.95582 -3.39476 10.8643 
9.03072 -3.39502 10.8584 
9.1562 -3.39295 10.8506 
9.255 -3.39137 10.8474 
9.3454 -3.35515 10.8588 
10.6573 -3.3492 10.858 
10.7184 -3.39346 10.8036 
10.8235 -3.39984 10.8009 
11.4905 -3.34793 10.8377 
11.5016 -3.38634 10.8898 
8.47171 -3.23217 10.852 
8.50635 -3.27764 10.8258 
9.17008 -3.20963 10.8125 
9.2629 -3.21385 10.82 
9.33475 -3.24593 10.8331 
10.666 -3.26543 10.8628 
10.7602 -3.21458 10.8502 
10.8463 -3.21532 10.8138 
10.9517 -3.20607 10.8062 
11.5545 -3.24954 10.8444 
11.6049 -3.2001 10.842 
8.36312 -3.12257 10.8574 
8.42144 -3.1811 10.8499 
8.95656 -3.1021 10.8223 
9.04046 -3.14358 10.8482 
9.14941 -3.1724 10.8641 
9.23939 -3.18647 10.8533 
9.33424 -3.19125 10.8808 
10.7629 -3.19261 10.8927 
10.8358 -3.19029 10.8704 
10.9518 -3.17654 10.8633 
11.0557 -3.15847 10.8461 
11.6493 -3.1571 10.8554 
8.28122 -3.03105 10.8355 
8.32537 -3.0814 10.8547 
8.59023 -3.0127 10.811 
8.62786 -3.00122 10.8313 
8.95757 -3.03305 10.8591 
11.0863 -3.04582 10.85 
11.3568 -3.01979 10.8513 
11.4554 -3.01622 10.8346 
11.755 -3.05432 10.84 
11.8037 -3.00658 10.8646 
8.18742 -2.93543 10.8594 
8.23353 -2.97738 10.8288 
8.47096 -2.91985 10.8338 
8.54947 -2.9647 10.8593 
8.67476 -2.95198 10.8527 
8.95362 -2.95033 10.8409 
11.0501 -2.94279 10.8464 
11.2904 -2.9176 10.8456 
11.3097 -2.96055 10.8591 
11.493 -2.9876 10.8501 
11.5461 -2.95039 10.8561 
11.6169 -2.92915 10.8239 
11.8491 -2.93742 10.8518 
8.16339 -2.84426 10.8521 
8.25771 -2.81162 10.8126 
8.35754 -2.83237 10.839 
8.44539 -2.88277 10.8557 
8.69998 -2.88979 10.889 
8.72235 -2.83785 10.8502 
8.95576 -2.85881 10.8288 
11.022 -2.86313 10.8532 
11.2715 -2.85375 10.8452 
11.675 -2.87906 10.8526 
11.7392 -2.84595 10.8672 
11.8345 -2.87696 10.8623 
8.17833 -2.76847 10.8768 
8.25499 -2.75576 10.8686 
8.75861 -2.74223 10.8158 
8.99304 -2.75254 10.8636 
9.00908 -2.71846 10.8704 
10.9795 -2.74759 10.8604 
11.225 -2.74519 10.8478 
8.78249 -2.67579 10.8531 
8.81994 -2.62367 10.817 
9.03302 -2.65174 10.8489 
10.9481 -2.66055 10.8458 
11.19 -2.64496 10.8388 
11.2006 -2.6931 10.8678 
8.84431 -2.5334 10.8448 
9.06892 -2.57115 10.8366 
9.1706 -2.55564 10.8399 
9.22945 -2.56225 10.853 
9.36772 -2.56 10.8571 
9.43858 -2.53919 10.8318 
10.5885 -2.52532 10.8577 
10.6608 -2.56007 10.8367 
10.7278 -2.56072 10.8461 
10.8456 -2.55674 10.8507 
10.9092 -2.57041 10.8849 
11.1589 -2.55188 10.847 
8.85311 -2.45681 10.8399 
9.49874 -2.49905 10.8144 
9.52778 -2.46928 10.8537 
9.64508 -2.44512 10.8527 
9.73616 -2.44806 10.8584 
9.85433 -2.45313 10.8523 
9.93297 -2.45768 10.8562 
10.0592 -2.45622 10.8347 
10.1411 -2.45128 10.8461 
10.2463 -2.43891 10.8678 
10.3278 -2.447 10.8565 
10.4484 -2.45068 10.846 
10.5593 -2.48577 10.8694 
11.1615 -2.45019 10.842 
11.2036 -2.40259 10.8011 
8.74711 -2.32289 10.8469 
8.80818 -2.38713 10.8424 
11.2396 -2.35733 10.8447 
8.72478 -2.25118 10.8421 
11.2758 -2.24274 10.8579 
8.68571 -2.10489 10.8161 
8.7141 -2.18685 10.8406 
11.2945 -2.17847 10.8419 
11.3187 -2.13377 10.8493 
8.59663 -2.0127 10.8749 
8.63632 -2.04953 10.8236 
11.3667 -2.07281 10.8578 
7.17234 -1.91033 10.889 
7.25313 -1.90952 10.8873 
8.53575 -1.953 10.8625 
11.4597 -1.97902 10.8684 
11.5207 -1.92511 10.8485 
12.7838 -1.94973 10.8801 
12.8485 -1.95243 10.8513 
12.918 -1.91663 10.849 
7.08152 -1.83113 10.8357 
7.13824 -1.88145 10.8447 
7.25787 -1.84928 10.8335 
7.30845 -1.84114 10.8931 
8.39619 -1.80492 10.859 
8.43735 -1.84509 10.8524 
11.562 -1.89258 10.8602 
11.6393 -1.82775 10.8673 
12.7776 -1.84825 10.8904 
12.8218 -1.84294 10.8268 
12.9667 -1.86813 10.8484 
13.0223 -1.81773 10.8399 
7.03553 -1.78836 10.8491 
7.24513 -1.74656 10.8411 
8.35272 -1.76234 10.853 
11.6865 -1.76516 10.8557 
11.7139 -1.73105 10.8631 
12.8478 -1.74676 10.8582 
13.0819 -1.76036 10.8462 
13.1223 -1.72038 10.8558 
6.86134 -1.61751 10.8565 
6.91964 -1.67316 10.8535 
7.17473 -1.64718 10.8121 
7.22649 -1.67232 10.8687 
8.1959 -1.60316 10.8869 
8.24766 -1.64875 10.8411 
11.7695 -1.67535 10.8431 
11.8307 -1.61773 10.8582 
12.8692 -1.68128 10.8808 
12.9297 -1.65197 10.8273 
13.162 -1.68021 10.8592 
13.2487 -1.62793 10.8324 
13.3653 -1.61051 10.8551 
6.59163 -1.51734 10.8649 
6.6537 -1.56489 10.8466 
6.74451 -1.57312 10.8386 
6.81709 -1.57759 10.8514 
7.15572 -1.56044 10.8424 
8.15958 -1.57177 10.8423 
11.8794 -1.56507 10.8434 
11.9149 -1.52177 10.8526 
12.9529 -1.53935 10.8466 
13.3898 -1.59008 10.8296 
13.4267 -1.53999 10.8484 
6.57152 -1.45155 10.8482 
7.08902 -1.42211 10.8171 
7.12326 -1.46716 10.8523 
8.0504 -1.45262 10.8474 
11.9803 -1.45926 10.843 
12.023 -1.4181 10.8411 
12.7876 -1.40629 10.8507 
12.852 -1.42927 10.8448 
12.9311 -1.47291 10.8313 
13.3855 -1.40481 10.8003 
13.4266 -1.45102 10.8529 
6.57839 -1.3688 10.8566 
6.61906 -1.32235 10.8498 
7.16102 -1.35874 10.8421 
7.24929 -1.31445 10.8536 
7.76799 -1.32857 10.8328 
7.85196 -1.34276 10.8561 
7.94085 -1.36464 10.8569 
12.0596 -1.39287 10.8436 
12.145 -1.36447 10.8418 
12.2523 -1.35597 10.8649 
12.3067 -1.31025 10.8601 
12.5662 -1.31358 10.8625 
12.6613 -1.33449 10.8288 
12.7506 -1.3876 10.8433 
12.8192 -1.39595 10.8023 
13.3591 -1.35924 10.8433 
6.6653 -1.26124 10.8507 
7.2991 -1.2913 10.8383 
7.34408 -1.27218 10.8495 
7.44321 -1.22569 10.8446 
7.67592 -1.22718 10.851 
7.72283 -1.27602 10.8361 
12.3572 -1.26278 10.8428 
12.443 -1.24865 10.8243 
12.5231 -1.27689 10.828 
12.8939 -1.20287 10.8134 
12.9498 -1.2202 10.8548 
13.0482 -1.23781 10.8581 
13.1211 -1.24924 10.8159 
13.341 -1.25448 10.8672 
6.67345 -1.146 10.8363 
6.89406 -1.14474 10.8213 
6.93652 -1.16083 10.8544 
7.02921 -1.15272 10.8593 
7.13548 -1.11023 10.8605 
7.53951 -1.18597 10.8446 
7.63367 -1.18588 10.8405 
8.1717 -1.12792 10.8363 
8.21266 -1.16157 10.8159 
12.5312 -1.13848 10.8019 
12.6632 -1.11617 10.8575 
12.7529 -1.15763 10.8251 
12.846 -1.18336 10.8536 
13.0898 -1.19725 10.8685 
13.1283 -1.14605 10.8575 
13.3419 -1.15569 10.864 
6.6756 -1.05799 10.8422 
6.88089 -1.03874 10.8407 
7.18786 -1.08866 10.8545 
7.25808 -1.05775 10.8522 
7.34034 -1.0187 10.8524 
8.07272 -1.02523 10.8471 
8.13256 -1.06842 10.8073 
12.4922 -1.04107 10.8069 
12.5413 -1.04943 10.8388 
12.6212 -1.08766 10.8529 
13.1528 -1.04565 10.8541 
13.3412 -1.04684 10.8355 
6.67748 -0.938695 10.8442 
6.872 -0.955366 10.8437 
7.39595 -0.993549 10.8441 
7.45203 -0.97103 10.8479 
7.52036 -0.936628 10.8401 
7.98219 -0.920191 10.8827 
8.01994 -0.954273 10.8356 
12.4845 -0.945485 10.8521 
12.5045 -0.982852 10.8731 
13.1839 -0.964937 10.8441 
13.2167 -0.945419 10.8096 
13.3357 -0.949238 10.8375 
6.67878 -0.846051 10.8658 
6.85184 -0.847351 10.8444 
7.54675 -0.858076 10.8522 
7.97271 -0.848162 10.8606 
12.4762 -0.834797 10.85 
13.1989 -0.892075 10.8541 
13.258 -0.82971 10.8644 
13.3299 -0.866471 10.8591 
6.68483 -0.789267 10.8738 
6.73921 -0.760346 10.8455 
6.81641 -0.773189 10.8712 
7.57039 -0.730965 10.8559 
7.95846 -0.76498 10.8288 
12.4408 -0.744587 10.8385 
13.2804 -0.798462 10.8969 
7.62294 -0.658514 10.833 
7.92709 -0.650095 10.8652 
12.3816 -0.644576 10.8553 
12.4073 -0.693701 10.8638 
7.65146 -0.558084 10.8354 
7.92581 -0.546613 10.8496 
12.37 -0.548303 10.8541 
7.65046 -0.454446 10.8394 
7.94808 -0.464936 10.8377 
12.3757 -0.4526 10.8686 
7.64743 -0.337996 10.8396 
7.99188 -0.36733 10.8409 
8.00649 -0.335345 10.8531 
12.3787 -0.342923 10.8401 
7.64233 -0.243099 10.8532 
8.05214 -0.245347 10.8627 
12.3785 -0.26367 10.8564 
7.65753 -0.121182 10.8399 
8.07102 -0.16883 10.8453 
12.3827 -0.140653 10.8563 
7.65224 -0.059721 10.8368 
8.09237 -0.0505407 10.8651 
12.3847 -0.0460753 10.8337 
7.64966 0.0496152 10.8453 
8.1083 0.050635 10.8675 
12.3841 0.0545961 10.8434 
7.65566 0.153008 10.8586 
8.1105 0.147032 10.856 
12.3839 0.139701 10.8632 
7.65106 0.240299 10.8544 
8.1089 0.268081 10.8614 
12.3867 0.258307 10.8536 
7.6467 0.344386 10.8341 
8.10965 0.353479 10.8395 
12.3869 0.318691 10.8532 
7.64351 0.450689 10.8666 
8.10701 0.426823 10.8525 
12.3995 0.426015 10.8775 
12.4337 0.468753 10.8387 
6.77426 0.58682 10.8782 
6.84904 0.586086 10.8837 
7.59833 0.568032 10.8715 
7.60789 0.534307 10.8361 
8.09942 0.56748 10.8711 
8.10402 0.544096 10.8399 
12.4836 0.563785 10.8634 
6.7189 0.633688 10.8635 
6.86033 0.648907 10.8434 
6.90306 0.610706 10.898 
7.56408 0.666577 10.8495 
8.09403 0.632477 10.8951 
8.10536 0.661501 10.8285 
12.4907 0.631323 10.8455 
13.2729 0.663311 10.8317 
13.3391 0.667471 10.8742 
6.69339 0.755161 10.8569 
6.86512 0.733467 10.8108 
6.92487 0.744529 10.8842 
7.55872 0.758177 10.844 
8.12696 0.732528 10.8461 
12.495 0.723497 10.8638 
12.5197 0.79204 10.8548 
13.1831 0.771262 10.8803 
13.2459 0.752112 10.8283 
13.3305 0.75035 10.8474 
6.69488 0.848512 10.8391 
6.88424 0.807691 10.8099 
6.93029 0.863217 10.8402 
7.47388 0.88316 10.8501 
7.537 0.852862 10.8463 
8.17789 0.852948 10.837 
12.5491 0.840082 10.8419 
12.6494 0.861718 10.8539 
12.7257 0.892611 10.8391 
13.1718 0.869543 10.8632 
13.2474 0.83911 10.8096 
13.3429 0.86151 10.8467 
6.69537 0.938628 10.8508 
6.96916 0.950693 10.8402 
7.01449 0.975945 10.879 
7.25497 0.969849 10.8311 
7.36294 0.923624 10.8642 
7.4301 0.901895 10.8324 
8.19793 0.912613 10.8844 
8.2307 0.972001 10.8411 
12.444 0.971881 10.8183 
12.5228 0.933783 10.8154 
12.6334 0.936291 10.8088 
12.759 0.941137 10.8199 
12.8456 0.95082 10.8495 
12.9359 0.987985 10.8628 
13.098 0.985837 10.8941 
13.1546 0.954841 10.844 
13.2048 0.912692 10.8071 
13.3488 0.936611 10.8392 
6.69472 1.05234 10.8668 
6.99226 1.03594 10.8096 
7.04946 1.03008 10.84 
7.14955 1.01467 10.8528 
7.56537 1.09202 10.8264 
7.64232 1.08651 10.831 
8.26514 1.0548 10.8548 
12.3419 1.04241 10.8536 
12.4802 1.00721 10.8591 
12.5565 1.03166 10.8491 
12.6551 1.06563 10.8269 
12.7577 1.04414 10.8025 
12.8364 1.05692 10.803 
12.9449 1.03858 10.8064 
13.0484 1.02908 10.8501 
13.1377 1.03363 10.8119 
13.35 1.0448 10.8526 
6.68955 1.14936 10.8378 
7.35711 1.18513 10.8528 
7.45389 1.14371 10.8646 
7.51447 1.11711 10.8454 
7.68845 1.11585 10.838 
7.76734 1.18215 10.8689 
7.84484 1.19871 10.8614 
8.28674 1.10789 10.862 
8.33282 1.16794 10.8444 
12.089 1.18955 10.8832 
12.1374 1.1654 10.8541 
12.2525 1.13211 10.8597 
12.7277 1.13114 10.8722 
12.8527 1.16844 10.8203 
12.9221 1.17547 10.8014 
13.3771 1.15271 10.8493 
13.4128 1.19499 10.8239 
6.62632 1.25328 10.8543 
7.14335 1.27896 10.8422 
7.2423 1.2348 10.8551 
7.31721 1.20468 10.8188 
7.87282 1.2006 10.838 
7.95949 1.22976 10.8346 
8.03368 1.28783 10.8402 
8.37594 1.21471 10.8472 
8.43032 1.28273 10.8552 
11.9887 1.28287 10.8807 
12.0439 1.23013 10.8565 
12.8986 1.212 10.8864 
12.9758 1.2561 10.8362 
13.0302 1.27151 10.8097 
13.4554 1.24943 10.8497 
6.59673 1.35273 10.8631 
6.60616 1.37415 10.8458 
7.08778 1.33037 10.8306 
7.11105 1.38133 10.8663 
8.05476 1.30704 10.8328 
8.12961 1.38536 10.8707 
8.47279 1.333 10.8505 
8.51297 1.38549 10.8611 
11.9361 1.34644 10.8322 
12.9745 1.35673 10.8551 
13.2882 1.39901 10.8117 
13.3629 1.39213 10.8435 
13.4555 1.33036 10.8546 
6.67172 1.43707 10.8539 
6.74186 1.44723 10.8467 
6.84867 1.4684 10.8424 
7.09196 1.40167 10.814 
7.16404 1.45815 10.8587 
7.20826 1.4906 10.8853 
8.17929 1.42844 10.8607 
8.22167 1.47213 10.8423 
8.56629 1.44482 10.8457 
8.64303 1.47589 10.8776 
11.784 1.48358 10.8874 
11.8446 1.4435 10.8463 
12.8935 1.48908 10.8786 
12.9535 1.46444 10.8311 
13.1745 1.47358 10.8525 
13.2371 1.41274 10.8591 
6.89854 1.50699 10.8656 
6.94495 1.55007 10.8378 
7.19073 1.52171 10.8289 
7.23193 1.56267 10.8498 
8.28013 1.5328 10.845 
8.33128 1.57784 10.8527 
8.67943 1.52471 10.8057 
8.73011 1.56126 10.8486 
11.697 1.59564 10.8224 
11.7463 1.53978 10.8601 
12.853 1.56009 10.8686 
12.9279 1.52576 10.8192 
13.0677 1.5813 10.8607 
13.1307 1.51709 10.8701 
6.99612 1.60598 10.8847 
7.04076 1.64861 10.8519 
7.26993 1.6251 10.8562 
8.37463 1.6183 10.8589 
8.41632 1.65197 10.8492 
8.78582 1.63229 10.8491 
8.83196 1.68373 10.8255 
11.6501 1.64522 10.8427 
12.7947 1.66294 10.8922 
12.8371 1.64968 10.8323 
12.9556 1.67343 10.8444 
13.0233 1.62357 10.8374 
7.09816 1.70834 10.8641 
7.13863 1.74612 10.8456 
7.27385 1.7531 10.8271 
7.30831 1.74588 10.874 
8.47792 1.72198 10.8524 
8.51337 1.76373 10.8425 
8.87673 1.73132 10.8639 
8.91392 1.77692 10.8493 
10.9532 1.78176 10.8626 
11.0389 1.7479 10.8265 
11.5582 1.749 10.8485 
12.8352 1.73028 10.8612 
12.9215 1.72484 10.8548 
7.1868 1.80283 10.894 
7.21515 1.81506 10.8778 
8.58034 1.83048 10.8495 
8.64049 1.88816 10.8802 
8.97266 1.83724 10.8415 
9.04735 1.88086 10.852 
9.77232 1.89688 10.8633 
9.82915 1.89022 10.8435 
9.94056 1.88533 10.8548 
10.0504 1.89241 10.8435 
10.1572 1.88844 10.8558 
10.6793 1.89303 10.8934 
10.721 1.89336 10.8726 
10.8535 1.85482 10.8449 
10.9203 1.83023 10.8299 
11.3964 1.89278 10.8761 
11.4372 1.8539 10.8334 
8.67929 1.9252 10.8644 
8.72387 1.97768 10.8375 
9.08033 1.90461 10.827 
9.12293 1.93443 10.8542 
9.24287 1.96637 10.8701 
9.34591 1.95208 10.8585 
9.46908 1.93636 10.853 
9.53778 1.92788 10.8416 
9.64532 1.91371 10.8503 
9.72214 1.90375 10.8518 
10.1858 1.90901 10.8212 
10.2483 1.92795 10.8515 
10.351 1.96984 10.853 
10.4682 1.96401 10.8634 
10.5736 1.94319 10.855 
10.6519 1.92788 10.8481 
10.7479 1.91751 10.826 
11.3569 1.9408 10.8397 
8.75773 2.03069 10.8604 
11.2945 2.06675 10.8463 
11.305 2.03454 10.8658 
8.77017 2.14226 10.8241 
8.80253 2.18884 10.8532 
11.247 2.16465 10.8512 
8.85811 2.24347 10.8432 
9.57327 2.29936 10.8594 
9.65273 2.29852 10.8479 
9.7683 2.29537 10.8584 
9.86779 2.29158 10.8734 
9.94718 2.2909 10.8559 
10.0555 2.28929 10.8479 
10.1344 2.2885 10.8279 
10.254 2.29561 10.8434 
10.3525 2.29221 10.846 
10.4587 2.28599 10.8439 
10.5105 2.28278 10.8672 
11.1779 2.25653 10.8566 
11.2172 2.20025 10.8347 
8.89808 2.38687 10.8072 
8.91009 2.34466 10.847 
9.3805 2.36646 10.837 
9.45116 2.32138 10.8554 
9.52682 2.30361 10.8518 
9.63636 2.3004 10.8894 
10.6601 2.32858 10.8413 
10.741 2.36497 10.8672 
10.8515 2.36915 10.8315 
10.9328 2.3761 10.8325 
11.1607 2.33043 10.8303 
11.2103 2.36068 10.8705 
8.87987 2.4289 10.8601 
9.13955 2.43849 10.8443 
9.2435 2.41741 10.8584 
9.31356 2.40973 10.8076 
10.9689 2.44561 10.8686 
11.0051 2.46034 10.8072 
11.1738 2.45147 10.8136 
11.239 2.44741 10.8617 
8.82402 2.56192 10.84 
9.07031 2.5683 10.821 
10.9934 2.51248 10.8924 
11.0243 2.55036 10.8385 
11.1751 2.52665 10.8004 
11.2522 2.55384 10.8388 
8.2661 2.66067 10.8824 
8.32689 2.68135 10.8621 
8.78535 2.65692 10.846 
8.80267 2.61376 10.8566 
9.04257 2.64224 10.8586 
11.0671 2.66183 10.8407 
11.2785 2.63992 10.8231 
11.3208 2.68417 10.8617 
