ply
format ascii 1.0
comment Created by CloudCompare v2.11.1 (Anoia)
comment Created 2026/6/4 下午3:33
obj_info Generated by CloudCompare!
element vertex 1860
property float x
property float y
property float z
end_header
21.9554 -10.0021 0.547218 
22.6421 -10.4185 0.547467 
21.1818 -9.60207 0.507908 
19.0658 -8.19704 0.569025 
30.1528 -14.4296 1.22556 
26.8913 -12.7529 1.04691 
27.6544 -13.1568 1.09316 
25.624 -12.0592 1.07598 
26.1629 -12.3444 1.05727 
24.8606 -11.4232 1.05031 
24.0451 -10.9095 1.0224 
21.9685 -10.0264 1.05417 
22.6797 -10.4523 1.05131 
21.1648 -9.60923 1.03825 
20.2121 -9.02949 1.03013 
27.6448 -13.163 1.77542 
26.1541 -12.3439 1.72541 
24.0363 -10.9662 1.72883 
21.9692 -10.0532 1.78062 
22.6764 -10.4217 1.73851 
20.2145 -9.02864 1.74829 
20.2103 -9.02142 2.45261 
20.2062 -9.00392 3.12651 
24.8275 -11.7146 6.59811 
14.9383 -6.73278 7.9655 
32.0133 -15.7839 9.45836 
25.4953 -12.0287 0.483014 
24.9228 -11.4288 0.560477 
23.2071 -10.768 0.571756 
24.0909 -10.9606 0.564472 
15.5286 -6.55923 0.50582 
29.9714 -14.2281 1.03657 
25.4887 -12.0033 1.22917 
26.2229 -12.3775 1.04674 
21.6629 -9.8507 0.93498 
21.7687 -9.93277 1.14739 
17.1965 -7.40194 1.05345 
15.4889 -6.5304 1.05749 
29.2529 -13.829 1.75522 
25.4694 -11.9938 1.74858 
30.4256 -14.7317 2.46473 
29.2617 -13.826 2.44213 
27.0007 -12.7882 3.15135 
21.6691 -9.87225 2.97062 
15.4774 -6.52127 3.85094 
21.788 -9.94991 5.06108 
29.0015 -13.9236 6.38788 
21.5482 -9.91449 6.57809 
22.5123 -10.6386 7.44981 
30.0156 -14.872 7.99591 
22.5181 -10.7539 8.04072 
30.0169 -14.8663 8.71921 
22.512 -10.7349 8.73573 
24.267 -11.6967 9.43554 
22.5158 -10.742 9.45767 
18.8103 -8.59174 9.4533 
33.0165 -16.0071 10.3627 
31.0134 -4.38282 16.6002 
27.0473 -2.19359 16.5894 
19.7772 -8.59629 0.601707 
17.1955 -7.40609 0.554179 
26.9882 -12.8035 1.05226 
25.4549 -11.9894 1.26747 
24.1857 -11 1.03926 
19.7704 -8.61703 1.11225 
19.7844 -8.6587 1.81428 
19.7927 -8.68325 2.48109 
30.4041 -14.6883 4.60353 
21.7302 -9.92162 4.99843 
21.6225 -9.89866 6.46702 
15.7796 -7.01635 7.58207 
23.7248 -11.4124 8.06143 
18.9551 -8.81607 7.91246 
17.5319 -7.9926 7.99292 
23.724 -11.4006 8.75902 
22.549 -10.7493 9.88587 
30.9088 -4.32475 16.6124 
29.7805 -3.5734 16.6559 
27.1579 -2.22576 16.6628 
26.099 -1.71019 16.6256 
30.9338 -4.26009 18.0467 
27.2504 -2.19818 17.7734 
27.2363 -2.15457 18.4486 
30.3941 -14.7379 0.5236 
31.206 -15.0982 0.60163 
28.0209 -13.3981 0.569185 
24.4043 -11.1166 1.78385 
32.8044 -16.0782 6.65869 
30.0619 -14.8482 7.60096 
18.9575 -8.80762 8.75238 
27.2132 -2.24185 16.6995 
27.2693 -2.20206 17.7776 
30.8622 -4.26619 18.3966 
31.6653 -15.3571 0.600776 
29.0824 -13.7214 0.574567 
26.3067 -12.4139 0.557036 
22.9291 -10.5937 0.571846 
23.4361 -10.7902 0.559713 
31.6793 -15.3723 1.06333 
28.4122 -13.5193 1.06456 
14.5622 -6.02015 1.30035 
30.9472 -14.9818 1.71019 
22.1323 -10.152 1.76507 
31.6538 -15.3793 2.46462 
29.5992 -14.2093 4.54655 
31.5983 -15.4501 6.63822 
30.2133 -14.6256 6.37386 
20.5835 -9.40212 6.65989 
19.4407 -8.77708 6.6187 
18.117 -8.02663 6.50458 
14.6224 -6.18497 6.48378 
29.9569 -14.7674 7.62329 
30.6124 -15.0372 7.37037 
28.684 -14.0943 7.4434 
19.6966 -9.20037 7.97458 
32.2127 -15.9775 9.61692 
26.8334 -1.95847 19.3631 
20.6891 -9.3743 0.524876 
21.4856 -9.75296 0.908956 
32.8402 -15.9996 1.76436 
19.5739 -8.50722 2.29737 
19.6499 -8.57157 2.61237 
14.9382 -6.22701 2.43218 
34.1661 -17.4114 4.01269 
29.164 -13.9629 5.05117 
23.326 -10.8041 5.19163 
30.4878 -14.7302 6.04797 
30.415 -14.6619 5.78892 
30.4092 -14.7824 6.64843 
23.7536 -11.4466 7.88885 
17.3233 -7.81507 9.58372 
30.8193 -4.29066 17.2197 
30.5538 -14.8011 0.590513 
30 -14.2864 0.552922 
31.3891 -15.205 1.76011 
24.1909 -11.0212 1.62942 
22.62 -10.386 1.76198 
26.9043 -12.727 5.19051 
24.8368 -11.6297 5.18456 
25.2249 -11.8246 5.41225 
18.8083 -8.34871 5.2754 
29.1596 -14.159 6.80857 
29.7986 -14.4258 6.57233 
29.1959 -14.4018 8.73446 
24.9965 -12.091 9.28593 
15.5782 -6.6401 10.2541 
31.0631 -4.41161 17.3318 
31.234 -4.31019 18.0223 
22.6034 -10.3961 0.535602 
27.7354 -13.2093 1.05943 
19.8699 -8.67502 0.99698 
24.095 -10.9803 1.56655 
31.5463 -15.2817 6.03693 
18.8463 -8.33059 5.9509 
15.525 -6.54558 6.00326 
18.8758 -8.4517 6.56594 
33.8151 -16.9897 9.50536 
33.7562 -17.0087 10.2009 
25.3908 -12.2803 9.9385 
15.6062 -6.597 10.287 
29 -3.16075 17.306 
26.3926 -1.88417 17.2143 
28.5271 -13.5371 0.53642 
25.4643 -12.0003 0.606936 
23.4786 -10.8102 0.576313 
27.9724 -13.3744 0.974055 
29.2153 -13.7929 1.03703 
25.4288 -11.9676 1.05971 
20.0028 -8.77582 1.01396 
31.2131 -15.1111 2.30641 
31.792 -15.4228 3.18001 
23.6339 -10.9232 3.84317 
29.1872 -13.9684 4.65059 
17.4067 -7.52795 4.52937 
28.422 -13.5825 5.2537 
23.6996 -11.0027 5.98641 
23.7057 -11.0908 6.57419 
33.3006 -16.5602 7.33948 
27.5964 -13.4109 7.38165 
25.0186 -11.9975 7.43274 
23.1795 -11.0322 7.45269 
19.2989 -8.97753 7.99725 
32.4236 -16.1705 8.8225 
22.2934 -10.615 8.57444 
22.4885 -10.7182 8.82226 
26.1517 -12.6572 9.37158 
23.9566 -11.4938 9.90184 
30.4793 -3.98781 17.7838 
25.0287 -11.5043 0.549995 
23.6035 -10.7999 0.613556 
25.0513 -11.5387 1.05402 
23.6437 -10.7725 1.08373 
25.0544 -11.5756 1.75366 
23.647 -10.784 1.76945 
27.8692 -13.3111 2.64146 
27.547 -13.1035 2.38795 
25.0548 -11.5791 2.45327 
25.0518 -11.6246 3.13564 
25.0498 -11.69 3.8422 
25.0461 -11.723 4.53885 
25.0443 -11.7568 5.23179 
25.0441 -11.7085 5.95158 
19.339 -8.66438 6.5068 
18.062 -8.15644 7.20112 
29.7466 -14.7198 7.91855 
23.6718 -11.3807 7.99187 
18.3931 -8.48204 7.93391 
16.3647 -7.35717 7.98671 
13.9023 -6.20008 10.36 
30.6527 -4.12846 18.3455 
30.6844 -4.11125 19.4762 
30.1228 -14.3696 1.25737 
24.4017 -11.1123 1.05945 
31.4127 -15.588 7.6094 
20.9339 -9.69176 7.19986 
18.145 -8.19733 7.16831 
28.1808 -13.8443 7.99818 
21.0575 -9.96216 8.72345 
28.2962 -2.72936 18.0441 
28.3772 -2.83788 18.3445 
30.8444 -4.08078 19.3802 
27.0125 -2.1827 19.1988 
26.9827 -2.20502 19.6791 
27.0127 -12.7988 0.550496 
14.7923 -6.17033 0.572424 
30.4169 -14.7327 0.895496 
31.6278 -15.3421 1.20854 
20.4068 -9.1777 1.08874 
21.4596 -9.75425 1.04898 
14.6384 -6.05265 1.06377 
31.6222 -15.3494 1.80004 
20.4018 -9.17334 1.77869 
14.619 -6.05567 1.84098 
20.4172 -9.1865 2.43663 
20.4147 -9.18862 3.11226 
14.8363 -6.20081 3.8465 
24.0949 -11.1838 4.68105 
14.6538 -6.07722 4.54465 
20.4463 -9.23535 5.15429 
26.2043 -12.3721 6.00651 
31.5599 -15.3455 6.35576 
27.5898 -13.2279 6.59229 
20.2116 -9.1467 6.52822 
29.998 -14.8139 7.63968 
27.0158 -13.1551 7.34759 
15.1683 -6.8124 7.98723 
22.6024 -10.7868 8.72067 
23.2765 -11.1373 9.27784 
30.2054 -14.5776 0.575922 
27.0255 -12.8108 0.580246 
25.802 -12.1627 0.506866 
24.6772 -11.2903 0.544243 
25.2736 -11.8671 0.594101 
23.9767 -10.8818 0.566708 
21.1218 -9.57385 0.512155 
25.8448 -12.1644 1.05171 
26.4221 -12.4874 1.03063 
24.6347 -11.269 1.05511 
23.029 -10.656 1.02368 
23.8936 -10.8373 1.06329 
29.2091 -13.7956 1.74935 
25.83 -12.1589 1.73448 
26.4197 -12.4694 1.75949 
23.0206 -10.6501 1.72359 
23.8773 -10.8954 1.75486 
15.9201 -6.69224 1.80894 
25.8231 -12.1714 2.45629 
26.401 -12.4814 2.46632 
25.8094 -12.1605 3.14763 
23.8671 -10.9616 3.16003 
20.8507 -9.43836 3.23284 
25.8064 -12.148 3.82423 
24.5839 -11.464 4.54653 
24.5789 -11.472 5.27408 
23.8486 -11.0907 5.19377 
23.6933 -10.9803 6.11064 
31.2062 -15.1504 6.45843 
25.7511 -12.2578 6.63767 
23.8952 -11.2842 6.79656 
23.5939 -11.0111 6.5516 
30.9319 -15.2338 7.44626 
15.9347 -6.79484 7.15795 
23.866 -11.4943 8.06179 
22.9813 -11.0103 8.04465 
30.9517 -15.3351 9.32019 
16.1921 -7.1518 9.35812 
29.2314 -13.7992 0.59156 
26.457 -12.488 0.504167 
19.5529 -8.50578 0.610013 
15.9555 -6.74685 0.608252 
29.2346 -13.8047 1.0581 
24.5998 -11.2477 1.05541 
24.5886 -11.2402 1.76327 
24.581 -11.2474 2.44768 
29.2106 -13.788 3.11426 
26.4344 -12.4857 3.14045 
24.571 -11.2592 3.11143 
21.0538 -9.56254 2.98041 
25.8343 -12.1477 4.54045 
25.8079 -12.1763 5.94818 
23.7716 -11.0263 6.14702 
23.8338 -11.2741 6.83715 
29.0678 -14.2484 7.40076 
28.3116 -13.9303 7.99791 
29.6811 -14.039 0.578785 
30.1423 -14.4683 0.552719 
18.8101 -8.13003 0.639888 
14.8017 -6.18034 0.578218 
29.6599 -14.0329 0.980328 
30.5902 -14.8027 1.75684 
27.3987 -13.0346 1.75679 
27.3932 -13.0054 2.47641 
22.634 -10.3981 3.14589 
20.5452 -9.29341 3.20351 
19.0849 -8.30842 3.24882 
34.1451 -17.3232 4.36576 
22.6097 -10.3837 4.54997 
14.6705 -6.08146 5.40378 
21.7799 -10.3246 7.98558 
21.4067 -10.1315 8.85782 
23.6294 -10.7988 0.598234 
28.3169 -13.5148 1.80028 
23.7009 -10.8164 1.73136 
23.6886 -10.8094 2.41318 
25.2149 -11.7966 3.17682 
34.1207 -17.0135 4.34082 
24.4427 -11.3807 5.22553 
25.1374 -11.804 5.27473 
24.4322 -11.4242 5.92317 
24.4198 -11.499 6.62932 
25.066 -11.8303 6.47913 
17.4287 -7.79876 7.21484 
17.719 -8.01348 7.41887 
24.4078 -11.7788 8.01335 
30.3551 -3.80305 18.0744 
26.7982 -12.6962 1.04201 
27.3902 -13.0087 1.07802 
33.7442 -16.5677 1.91272 
26.7968 -12.6916 1.77128 
26.7946 -12.6772 3.13841 
26.7903 -12.667 3.83213 
33.7273 -16.5698 6.09538 
34.3717 -16.8923 6.90972 
34.0116 -17.0431 7.36544 
31.4001 -15.5564 7.52931 
13.9816 -6.1036 7.57645 
33.8829 -17.0903 7.99577 
14.082 -6.21683 8.03482 
31.4041 -15.5946 8.73755 
22.9915 -11.0145 8.74921 
31.4105 -15.5901 9.41412 
23.996 -11.5123 9.44816 
19.0568 -8.79679 9.47297 
17.009 -7.61022 9.60679 
33.9215 -17.0814 10.2023 
32.6223 -16.2556 9.91642 
13.9779 -6.12855 10.8892 
14.0989 -6.21273 10.7935 
15.8055 -6.1325 10.7677 
30.4128 -4.02648 17.2094 
29.1452 -3.22665 17.3846 
26.4531 -1.94073 17.2173 
30.5187 -4.06106 19.1871 
27.3863 -12.9852 0.624286 
27.3613 -12.9938 1.07945 
18.5907 -8.10456 0.991256 
16.3475 -6.91405 2.39076 
20.3915 -9.20585 3.86442 
16.4538 -7.02409 5.75385 
33.4058 -16.585 7.35555 
18.9924 -8.80766 8.03612 
14.0844 -6.23205 7.98695 
16.9154 -7.60328 9.67115 
33.2096 -16.6878 10.7948 
13.9822 -6.12629 11.0108 
29.2178 -3.2596 17.4239 
33.6367 -16.5063 2.0125 
14.0515 -6.19849 10.754 
32.0202 -15.5439 0.594669 
25.0972 -11.6082 1.07055 
31.3951 -15.2148 1.84136 
25.0981 -11.6116 1.76876 
17.8496 -7.79158 1.89092 
15.2311 -6.39533 1.77277 
31.5487 -15.2931 2.62737 
25.1001 -11.6321 2.43969 
19.388 -8.56385 3.7292 
25.8244 -12.14 5.17332 
33.2465 -16.4375 6.63577 
32.5455 -16.1558 7.53679 
25.2441 -12.1494 7.36578 
23.5352 -11.1378 7.18884 
17.2396 -7.79895 7.47164 
25.9076 -12.5874 7.99534 
33.0283 -16.5852 9.44688 
14.4955 -6.41004 9.27381 
29.0096 -3.14287 17.4398 
25.824 -1.55827 17.2369 
27.5739 -2.33836 17.7585 
27.5267 -1.97919 18.6036 
27.3853 -1.95392 19.2597 
21.8559 -9.93458 0.614471 
18.6969 -8.1005 0.978715 
24.0627 -11.0312 3.21334 
27.5776 -13.1189 6.04551 
18.7884 -8.2783 6.03081 
23.0358 -10.6939 6.53665 
33.496 -16.8196 7.61452 
18.367 -8.44526 7.58179 
31.7861 -15.821 8.76445 
30.5495 -15.1506 8.5963 
31.1753 -15.4494 9.28514 
22.0408 -10.391 9.49701 
18.4443 -8.44097 9.38832 
28.1312 -2.67459 17.2828 
26.7984 -1.9939 17.7391 
24.0762 -10.9147 0.621146 
19.7924 -8.60072 0.574278 
15.6229 -6.58548 0.520964 
21.4408 -9.75082 1.75313 
22.9035 -10.5861 2.97563 
21.5501 -9.82604 3.21346 
27.0746 -12.839 4.38243 
33.7971 -16.8441 6.84706 
32.6054 -16.2479 7.50802 
25.8039 -12.5455 8.03096 
25.8083 -12.5441 9.45779 
29.9996 -14.2115 1.75528 
34.0593 -16.7581 4.7132 
30.5111 -14.7099 5.17294 
31.555 -15.3573 6.40252 
31.4068 -15.4842 7.33119 
30.4115 -14.9976 9.87667 
33.8013 -16.9904 10.8769 
30.4803 -14.7591 0.602227 
28.9123 -13.5956 0.579696 
31.0223 -14.9997 3.14108 
34.0994 -16.9566 4.38808 
22.2083 -10.1971 4.50863 
18.6507 -8.21563 4.60924 
22.2004 -10.1779 5.1979 
34.0697 -16.7581 6.44195 
30.3469 -15.0004 7.37017 
31.0553 -4.40627 16.6128 
29.8127 -3.58467 16.7059 
29.8639 -3.58962 17.7702 
19.2505 -8.32771 2.34291 
19.4815 -8.58163 3.64021 
32.4394 -15.7956 4.55712 
29.2217 -14.0157 5.41458 
33.2471 -16.3934 6.62595 
32.7497 -16.3837 7.98835 
21.5849 -10.2123 7.88414 
31.1286 -15.3604 9.60807 
21.56 -10.1766 9.28771 
31.6968 -4.73858 16.65 
30.3879 -4.0183 16.6359 
29.7751 -14.152 3.37035 
32.6293 -16.1828 7.43774 
18.7105 -8.61384 7.32295 
18.9399 -8.75488 7.48093 
33.787 -17.0021 9.42174 
18.9487 -8.7337 9.37826 
28.4949 -2.8709 16.6216 
23.4343 -10.8075 1.23633 
22.1113 -10.0917 0.999838 
23.4331 -10.8094 1.59362 
30.6021 -14.7968 3.15365 
29.7595 -14.1574 3.42682 
30.6053 -14.794 3.86472 
30.6119 -14.7846 4.55678 
22.1841 -10.185 4.60583 
27.7066 -13.2573 6.38588 
32.6421 -16.071 7.13721 
31.4636 -15.6156 9.85878 
31.0174 -14.9887 0.575901 
34.095 -16.9399 6.8828 
33.6895 -16.5931 6.64359 
17.6176 -7.97665 7.48123 
33.4098 -16.8411 7.99705 
23.1616 -11.1008 7.99825 
28.8926 -13.7382 9.40164 
30.4876 -4.10932 16.622 
27.7403 -2.47138 16.6652 
31.8002 -4.72015 17.0537 
31.8395 -4.63282 17.818 
31.819 -4.69387 18.5382 
26.9061 -12.7376 2.97397 
33.9984 -17.29 4.42901 
32.5898 -16.2015 7.51633 
28.9925 -14.2591 9.38121 
31.926 -4.58038 17.0522 
31.9616 -4.44178 18.5603 
32.0553 -3.94435 19.4066 
32.1734 -15.6164 0.568086 
33.8004 -16.5915 1.04376 
28.606 -13.5205 1.06223 
28.6122 -13.5847 1.79365 
15.1884 -6.36931 1.73977 
25.4713 -11.9813 2.63598 
25.2941 -11.8732 2.35253 
29.0086 -13.7893 3.86765 
15.3107 -6.43933 3.79429 
25.4922 -11.967 5.16046 
25.3533 -11.8513 5.74941 
27.3816 -13.1405 6.82211 
33.4505 -16.6391 7.36107 
27.4416 -13.3887 7.55241 
26.5546 -12.976 7.99577 
26.5526 -12.9407 9.26505 
15.7491 -6.13166 11.0212 
31.8135 -4.67598 19.3071 
15.3139 -6.44192 0.999084 
26.6081 -12.5749 4.67696 
31.8594 -15.461 5.06786 
25.6018 -12.0228 5.19484 
33.7868 -16.6143 5.94448 
31.8295 -15.4429 6.09647 
26.9295 -12.7648 6.09604 
33.1708 -16.4152 6.66087 
25.8221 -12.56 8.66655 
29.1965 -3.26789 16.6165 
29.2224 -3.25592 17.7974 
26.0876 -1.57229 18.0167 
31.9236 -4.43906 19.329 
31.9097 -4.46879 19.6595 
27.4044 -12.9894 0.536679 
15.3211 -6.41968 1.53764 
31.796 -15.4116 3.85277 
24.2635 -11.1362 3.57065 
31.7784 -15.4268 4.54107 
31.7933 -15.4262 5.0195 
31.7727 -15.4118 6.12787 
31.1816 -15.4044 6.96568 
24.5849 -11.6014 6.62574 
32.9964 -16.6004 8.02915 
24.8098 -11.9808 9.39516 
30.6063 -4.16735 16.5131 
29.2192 -3.27822 16.6611 
30.6102 -4.18491 17.2007 
31.9989 -4.36332 18.5984 
31.9786 -4.3206 19.34 
31.9703 -4.3414 19.6656 
27.3939 -12.9839 0.533081 
34.2019 -17.1579 3.4413 
26.7082 -12.6484 6.20694 
31.1989 -15.2008 6.6358 
32.006 -4.35055 18.6 
32.0062 -4.26137 19.3455 
26.1035 -1.59689 19.3477 
32.0005 -4.27771 19.6686 
30.5967 -14.8043 0.613395 
27.9266 -13.3198 0.608238 
28.6135 -13.5983 3.17804 
23.9399 -11.0618 3.7926 
27.9639 -13.312 5.23705 
27.9425 -13.3971 6.54174 
32.7864 -16.4302 7.40607 
28.8037 -13.867 9.4771 
28.7422 -13.9869 9.95748 
31.2396 -4.50939 16.6861 
24.3354 -11.0863 0.607283 
23.3049 -10.7837 3.8881 
33.4183 -16.3915 5.2627 
33.2845 -16.3713 6.59582 
26.1252 -12.7246 7.99071 
32.2477 -3.97167 17.2489 
30.7449 -4.23483 18.5739 
32.2599 -3.85925 18.4713 
32.2639 -3.88608 19.2111 
32.0968 -3.87449 19.6742 
33.7985 -16.6068 5.25282 
26.7189 -12.9731 7.46583 
24.555 -11.8176 9.31644 
15.2137 -6.81894 10.7712 
31.622 -4.46256 17.9176 
31.8966 -15.5019 1.80061 
34.4289 -17.3014 3.97999 
25.0403 -11.7014 3.73365 
21.858 -9.97549 3.7357 
18.678 -8.19983 3.72787 
27.4145 -12.9993 4.55129 
21.873 -10.01 4.64162 
27.4118 -12.9973 5.24471 
21.9422 -10.0353 5.1074 
25.2959 -11.9977 6.65694 
30.7368 -4.24744 17.2274 
32.2846 -3.68078 18.0405 
25.7918 -1.37121 18.5489 
30.6482 -4.14305 19.6337 
32.4454 -15.757 1.27402 
31.7664 -15.4257 1.84385 
31.7974 -15.4343 2.95586 
15.4993 -6.52019 3.785 
31.7648 -15.4263 4.68211 
30.2003 -14.5696 5.09427 
28.7744 -13.8929 6.64344 
19.7037 -9.01129 6.78508 
22.2322 -10.4503 7.24968 
34.4024 -17.086 8.03517 
34.4094 -17.089 8.84754 
30.6144 -15.1948 8.73355 
31.9332 -15.8367 9.44284 
28.7523 -13.9315 9.49771 
15.301 -6.77112 10.9689 
26.0323 -1.69799 17.2104 
32.3445 -3.76425 18.6957 
32.5672 -3.28997 18.4161 
32.3482 -3.74152 19.4224 
32.3503 -3.30602 19.3332 
28.76 -13.5587 0.565287 
22.3137 -10.2036 0.569167 
33.164 -16.2222 1.33169 
31.2429 -15.127 1.22192 
22.3349 -10.2261 1.10295 
31.7197 -15.3838 1.55943 
25.7535 -12.1066 1.80365 
19.3138 -8.41312 3.44214 
24.1988 -11.2589 4.02376 
31.7387 -15.3856 4.36886 
22.216 -10.2013 4.60598 
30.1503 -14.5549 5.00687 
28.7822 -13.7929 5.69455 
28.6499 -13.7467 6.44992 
34.3782 -17.1374 8.01106 
34.3767 -17.1555 8.84193 
26.9227 -13.0994 9.39921 
25.9858 -1.67113 17.2405 
32.4068 -3.66484 18.7694 
32.5091 -3.41542 18.4267 
30.9785 -4.27819 19.3664 
32.4105 -3.62627 19.4782 
32.414 -3.39091 19.2825 
22.2901 -10.2056 2.46406 
27.9059 -13.3076 3.57795 
30.1253 -14.5476 4.96317 
31.763 -15.4167 6.22816 
22.4931 -10.6998 7.61259 
34.3661 -17.1631 7.99901 
28.6538 -13.9868 9.61654 
19.7695 -9.20708 9.16331 
32.4379 -3.61514 18.8062 
32.4416 -3.56865 19.506 
32.4458 -3.43335 19.2572 
18.0417 -7.9225 1.58927 
32.9739 -16.0819 3.68556 
21.1128 -9.62744 6.54448 
27.6501 -13.5729 7.99496 
21.4167 -10.1339 7.9891 
25.4979 -12.3706 9.32557 
31.8246 -4.67722 17.2421 
30.2808 -3.90721 17.2483 
27.0148 -2.19859 17.2871 
26.8845 -1.98826 18.0683 
26.8334 -1.93043 19.4511 
25.0359 -11.4745 0.61017 
32.0288 -15.5444 1.25068 
25.04 -11.5972 3.13011 
17.7791 -7.7404 3.795 
17.7566 -7.72893 4.35488 
25.0276 -11.784 6.42756 
21.0449 -9.5995 6.58501 
17.6059 -7.68602 6.4244 
25.3109 -12.2315 7.50158 
18.0755 -8.25134 7.41473 
31.0048 -15.3832 7.95383 
31.0047 -15.3882 8.73918 
25.3524 -12.2895 9.26644 
31.7512 -4.7456 17.3076 
31.9534 -15.5047 1.27005 
22.5494 -10.3538 2.39599 
26.0125 -12.2386 3.79167 
33.8459 -16.5892 4.59815 
15.511 -6.5207 5.19585 
25.8423 -12.2762 6.58948 
22.3195 -10.3137 6.5173 
27.1453 -13.2075 7.36223 
27.2258 -13.3592 7.91367 
19.5429 -8.95306 9.64038 
31.2175 -4.50706 17.2791 
30.9874 -15.0119 1.17654 
18.3775 -8.05317 1.08793 
33.2606 -16.3029 1.89055 
32.6396 -15.8757 1.80451 
18.3343 -8.02874 1.75407 
21.4244 -9.7141 2.39213 
27.8331 -13.2446 4.60845 
24.0184 -11.3472 6.81188 
21.4298 -9.92976 6.80295 
28.0788 -13.7301 7.47976 
18.5814 -8.5421 7.39559 
18.4051 -8.48922 7.91396 
32.6005 -16.2727 8.8013 
27.0603 -2.22509 17.3113 
29.8956 -14.1743 0.621649 
24.905 -11.4105 0.641017 
31.1795 -15.0986 1.2756 
22.9502 -10.6019 1.61366 
15.7164 -6.59099 2.398 
29.17 -13.8327 3.71812 
22.8526 -10.5427 4.39161 
15.5635 -6.54059 4.60174 
34.4267 -16.9917 7.3806 
20.4691 -9.54836 7.48969 
34.3552 -17.1437 8.7057 
34.406 -17.0131 9.30799 
26.2751 -12.7458 9.37503 
34.4405 -17.0148 10.3061 
24.8395 -11.3785 0.65644 
31.7899 -15.4332 1.73954 
22.9928 -10.6319 1.55503 
15.7454 -6.60154 2.39577 
20.3661 -9.52006 7.56556 
20.1769 -9.4324 8.21461 
20.3936 -9.61084 7.97175 
16.3422 -7.40086 7.98969 
34.389 -17.0656 9.22971 
15.5543 -6.7539 9.36967 
34.6787 -16.6411 10.4103 
29.2673 -14.4032 9.95932 
26.0441 -12.2636 0.896144 
24.0065 -10.9987 3.13692 
21.6769 -9.86073 4.00371 
18.3652 -8.08865 5.10452 
24.1075 -11.2554 5.79725 
34.4068 -16.7651 6.7867 
34.9279 -15.7354 6.76664 
27.0959 -13.2376 8.23314 
29.5632 -13.9667 0.591089 
29.6002 -13.9776 1.06718 
36.9366 -11.7058 0.842243 
32.4718 -15.7783 1.80904 
16.5949 -7.07109 1.82338 
36.9521 -11.6914 3.35759 
16.4247 -6.9567 3.08853 
36.6985 -12.0928 4.03617 
36.9043 -11.7248 3.74788 
16.4343 -6.98353 3.76246 
36.6251 -12.2554 4.55172 
16.4224 -6.98832 4.63651 
36.4378 -12.6216 5.45275 
36.5997 -12.3243 5.24553 
16.4058 -6.9803 5.26834 
36.8749 -11.7105 6.18632 
34.9024 -15.856 6.84297 
35.2542 -15.011 6.86342 
35.923 -13.7536 6.73384 
36.3093 -12.9732 6.61811 
36.6191 -12.2462 6.42157 
20.821 -9.49471 6.59179 
27.2251 -13.1952 7.26064 
25.8875 -12.6087 8.54519 
31.1261 -15.4382 9.18924 
15.64 -6.60045 10.2629 
25.8222 -1.52088 17.7503 
32.5463 -3.38031 18.624 
25.8025 -1.56304 19.49 
33.9861 -16.6949 2.04482 
36.8888 -11.7751 3.41717 
36.8452 -11.8268 3.70414 
20.8416 -9.41791 3.79962 
16.5161 -7.03629 4.00424 
36.2503 -13.0408 4.70599 
28.4205 -13.5672 6.02522 
35.3425 -14.8878 6.86459 
36.315 -12.9326 6.57822 
36.6584 -12.1753 6.41086 
25.8199 -12.5512 9.87265 
32.5418 -3.35739 19.4051 
30.9208 -14.9408 0.617159 
35.1828 -14.8573 0.555825 
24.744 -11.3287 0.654539 
47.7713 7.89154 0.656569 
35.1802 -14.8619 1.01661 
28.8756 -13.5932 0.988143 
35.1757 -14.8528 1.71109 
35.1681 -14.8523 2.29394 
27.8143 -13.25 3.21802 
35.1797 -14.7805 4.00345 
48.6478 9.55915 3.85435 
35.1545 -14.8586 4.53323 
35.1333 -14.8985 5.25245 
48.5782 9.47908 5.25764 
35.0967 -14.9741 5.97356 
22.3315 -10.2222 6.05356 
48.58 9.44991 5.97105 
34.3976 -16.7623 6.74953 
34.7838 -15.7774 6.60267 
19.1979 -8.59463 6.56916 
44.5156 1.79061 6.85819 
46.735 5.93324 6.83018 
48.6162 9.34806 6.67343 
30.3994 -14.9722 7.40168 
42.4526 -2.23605 7.51097 
42.973 -1.28538 7.26324 
33.3849 -16.8199 8.02305 
41.9102 -3.29411 8.04913 
42.1123 -2.90527 7.77333 
41.1907 -4.66112 8.91451 
41.697 -3.68061 8.82922 
41.9238 -3.28459 8.72056 
30.3612 -15.0116 9.42531 
14.3014 -6.27283 9.60361 
42.7242 -1.7298 9.61222 
42.7309 -1.62972 10.0276 
30.4054 -4.02515 17.4197 
31.8698 -4.55257 17.8944 
28.5314 -13.5287 0.603147 
37.0762 -11.6049 0.625403 
35.4773 -14.4031 1.01832 
37.0454 -11.6286 1.02666 
40.4681 -5.19908 1.02714 
33.4055 -16.3825 1.9185 
32.9795 -16.0779 1.8077 
34.6681 -15.8925 1.74047 
35.4388 -14.4539 1.76051 
29.6071 -13.9894 1.76206 
37.0403 -11.6554 1.74274 
16.2038 -6.8435 1.87424 
40.3944 -5.25569 1.75101 
33.428 -16.3997 2.44815 
34.6837 -15.8364 2.42281 
29.7174 -14.0575 2.31734 
35.4422 -14.4406 2.35584 
37.0571 -11.6193 2.43885 
20.9215 -9.46852 2.39771 
40.3914 -5.25617 2.38873 
37.0138 -11.6834 3.15801 
40.3917 -5.26682 3.14093 
35.4585 -14.36 4.05721 
28.4996 -13.5706 3.70694 
40.347 -5.40746 3.92215 
34.3807 -17.3054 4.49014 
34.6385 -15.9395 4.57783 
35.4693 -14.3263 4.59897 
37.0209 -11.6615 4.46808 
37.3094 -10.9176 4.74909 
21.1648 -9.59261 4.66327 
40.0438 -6.0568 4.54436 
35.4791 -14.2813 5.25366 
37.3781 -10.8266 5.26668 
40.07 -6.02235 5.229 
33.3561 -16.3603 6.01775 
34.641 -15.9002 5.94406 
35.4614 -14.3211 5.97588 
39.788 -6.58875 5.87561 
40.0359 -6.07911 6.09862 
34.4266 -16.5751 6.67259 
34.7281 -15.952 6.61482 
35.301 -14.8513 6.79963 
35.4189 -14.5099 6.55515 
36.6546 -12.4025 6.71378 
36.9726 -11.7277 6.62658 
37.174 -11.3764 6.63213 
39.1212 -7.98411 6.78958 
39.7098 -6.75901 6.52423 
34.489 -16.878 7.18447 
32.4907 -16.1276 7.62483 
34.5793 -16.731 7.43686 
34.8604 -16.0413 7.17452 
36.2073 -13.5457 7.47097 
38.3674 -9.66156 7.38378 
38.78 -8.83194 7.22443 
34.618 -16.6568 7.98004 
36.1123 -13.7911 8.07312 
37.8944 -10.6526 8.08887 
38.1265 -10.1834 7.92615 
34.4648 -16.994 8.77123 
34.6256 -16.6366 8.64494 
35.9093 -14.1936 8.88185 
36.1109 -13.769 8.69903 
37.9017 -10.5972 8.92634 
38.1271 -10.1763 8.67201 
34.5968 -16.6531 9.4356 
36.106 -13.6079 9.51563 
24.5374 -11.7858 9.38767 
21.8545 -10.3454 9.39991 
33.3954 -16.8115 10.3127 
34.4784 -16.9494 10.3292 
34.5957 -16.6738 10.0648 
36.0043 -13.5155 9.95708 
38.0503 -10.0429 10.0009 
34.6008 -16.6496 10.8763 
32.5869 -3.18224 17.9199 
32.4485 -3.58148 18.7303 
43.8961 0.959111 0.655752 
29.2635 -13.8107 0.993608 
36.8715 -11.7961 1.02492 
43.8843 0.972307 1.13871 
34.774 -15.6272 1.67168 
36.8591 -11.8127 1.78336 
43.8534 0.913038 1.76241 
29.2882 -13.8377 2.39619 
24.9017 -11.4525 2.35969 
36.8631 -11.8016 2.44668 
22.6537 -10.3944 2.30622 
43.8322 0.938058 2.51052 
33.4006 -16.3812 3.19072 
36.8349 -11.839 3.09979 
43.9022 1.03899 3.07342 
34.2346 -17.4331 3.93322 
34.3493 -17.2723 3.76955 
36.7508 -11.9816 3.89483 
22.9284 -10.5949 3.7937 
43.277 -0.121875 3.81068 
36.6598 -12.1985 4.55586 
42.8423 -1.0211 4.59738 
43.1864 -0.290022 4.39792 
34.7336 -15.6979 5.26219 
36.6106 -12.3066 5.25154 
34.7134 -15.7528 5.95361 
36.606 -12.2937 5.92934 
23.3509 -10.7924 6.03679 
43.1415 -0.402342 5.99725 
34.6759 -15.9216 6.52138 
36.0697 -13.5303 6.80429 
41.4947 -3.64387 6.75629 
42.4755 -1.73431 6.6165 
35.8836 -14.1659 7.53319 
36.1803 -13.4515 7.23633 
14.9432 -6.62602 7.39508 
41.1287 -4.62173 7.4591 
35.8275 -14.3189 8.03012 
40.8383 -5.23838 7.89651 
34.3439 -17.1121 8.56013 
35.8565 -14.2465 8.71462 
40.6414 -5.61276 8.8021 
40.7836 -5.34094 8.75433 
35.8056 -14.2852 9.35936 
36.0061 -13.8211 9.54308 
15.2437 -6.79283 9.38699 
40.8918 -4.74642 9.51529 
35.9773 -13.7792 9.91264 
40.8305 -4.70736 9.8892 
31.9749 -4.49557 17.2816 
32.0214 -4.3858 18.6458 
32.1058 -4.06425 19.3129 
39.0998 -7.92491 0.605917 
35.7739 -13.9246 1.14176 
39.0757 -7.95176 1.07818 
34.4038 -16.3603 1.76491 
35.7722 -13.9067 1.75697 
39.0613 -7.98207 1.73112 
34.402 -16.3516 2.455 
35.768 -13.8972 2.48571 
23.9449 -10.8894 2.39208 
34.4221 -16.3083 2.95807 
29.8198 -14.2714 3.7328 
39.0178 -8.03526 3.79458 
16.8612 -7.2288 4.0018 
34.3824 -16.4073 4.68061 
31.0015 -14.982 4.55195 
28.1563 -13.429 4.67794 
26.391 -12.4415 4.6076 
24.3828 -11.3295 4.60001 
38.9909 -8.0764 4.51656 
34.3803 -16.4055 5.26367 
31.0177 -14.9944 5.24048 
35.8168 -13.6992 5.26412 
38.9133 -8.22054 5.14294 
39.3039 -7.29567 5.31332 
34.3804 -16.3981 5.9661 
35.8116 -13.6714 5.95917 
39.1708 -7.55009 6.03075 
34.3672 -16.542 6.52154 
29.5996 -14.4459 6.83309 
35.5827 -14.276 6.64025 
35.8863 -13.6469 6.51506 
39.0721 -7.90992 6.5696 
37.986 -10.3595 7.34493 
35.0866 -15.8119 8.03621 
35.275 -15.2805 7.8995 
37.863 -10.678 8.24183 
35.2706 -15.3018 8.67023 
37.6736 -11.0387 8.88418 
37.8697 -10.6274 8.72911 
35.2394 -15.1262 9.56818 
37.8616 -10.5859 9.44083 
34.9457 -15.8689 10.3643 
35.1945 -15.0922 9.94445 
31.7028 -4.64425 18.6123 
26.8778 -12.7159 0.61978 
36.9821 -11.7033 0.61045 
32.6056 -15.8358 1.20521 
40.9812 -4.43891 1.19245 
32.0074 -15.5568 1.80667 
29.2636 -13.8233 1.59625 
29.4605 -13.9154 1.83987 
17.2074 -7.39606 1.75817 
40.9979 -4.39205 1.71556 
35.1774 -14.859 2.42703 
36.8805 -11.7996 2.41855 
17.2464 -7.43836 2.39213 
41.0408 -4.3064 2.42783 
35.1869 -14.8258 3.27678 
41.0027 -4.36637 3.22722 
40.9647 -4.443 3.92338 
35.2017 -14.7794 4.55097 
28.4981 -13.6057 4.6059 
36.8046 -11.9841 4.55567 
40.96 -4.43174 4.52912 
41.1618 -4.02964 4.7304 
35.2039 -14.7756 5.25543 
22.3679 -10.2487 5.09893 
41.1697 -3.99725 5.23434 
31.4026 -15.2009 5.78558 
36.9166 -11.65 5.96605 
18.3552 -8.06825 6.05113 
34.8868 -15.8511 6.77714 
30.655 -14.9238 6.52623 
35.1731 -15.0478 6.5729 
36.5183 -12.6822 6.82462 
36.6937 -12.294 6.66685 
40.7063 -5.09943 6.81488 
40.9044 -4.5789 6.57042 
34.7765 -16.3595 7.56641 
34.9052 -16.025 7.2598 
36.3771 -13.2509 7.29817 
36.4916 -12.9493 7.38302 
40.0228 -6.63387 7.36833 
40.3925 -5.80125 7.09401 
34.831 -16.3023 8.03285 
36.2917 -13.5 7.99412 
39.7748 -7.20817 8.16244 
39.8801 -6.96055 7.79024 
34.8475 -16.2384 8.73465 
36.2687 -13.5423 8.74956 
36.3698 -13.2378 8.60693 
39.8788 -6.98743 8.67356 
32.5299 -16.2205 9.39546 
34.7424 -16.3979 9.29214 
34.8944 -15.9731 9.49553 
36.2482 -13.0173 9.41622 
36.444 -13.0821 9.49573 
39.7199 -6.77169 9.36852 
39.9623 -6.7487 9.54811 
34.8616 -16.2251 10.2927 
34.9149 -16.034 10.0449 
39.7378 -6.72951 9.92908 
13.9092 -6.19894 10.4045 
34.8144 -16.2921 10.7177 
34.9146 -15.9212 10.9873 
34.7516 -15.9391 11.3523 
23.5875 -10.7971 0.627086 
34.7882 -15.6455 1.1546 
36.4501 -12.1238 1.16235 
38.8515 -8.29225 1.03306 
34.0247 -16.731 1.9385 
34.8272 -15.4755 1.72855 
38.8609 -8.25464 1.75616 
33.3109 -16.3165 2.39517 
34.8228 -15.5021 2.45272 
27.7847 -13.2409 2.27785 
36.3362 -12.3398 2.42915 
38.8556 -8.25212 2.49664 
48.5065 9.33034 2.44286 
34.8111 -15.5125 2.95118 
36.3574 -12.3056 3.18813 
38.9153 -8.17286 3.05238 
48.5439 9.39789 3.11376 
34.4672 -17.3506 4.05868 
33.7086 -16.5623 3.7927 
34.815 -15.5329 3.74736 
34.8682 -15.3523 3.95785 
36.146 -13.0403 4.00195 
36.344 -12.3948 3.67147 
48.3286 9.07272 4.01943 
34.4624 -17.2656 4.4966 
33.796 -16.5977 4.62212 
34.8757 -15.3425 4.51879 
36.1237 -13.2036 4.61504 
38.7157 -8.48218 4.47969 
34.8752 -15.3468 5.23383 
35.9477 -13.5055 5.41018 
36.1307 -13.1852 5.20868 
48.4402 9.26254 5.18149 
35.9453 -13.4907 5.81219 
36.1556 -13.0931 5.99663 
21.1954 -9.59778 6.06397 
38.6351 -8.65028 5.82951 
38.8722 -8.0928 5.97706 
48.1447 8.72812 6.02567 
48.3228 9.07918 5.93937 
35.8025 -14.0728 6.8831 
35.9814 -13.5801 6.65259 
36.207 -13.0631 6.5016 
38.2975 -9.60442 6.9095 
38.6401 -8.76639 6.73339 
38.9131 -8.14801 6.50677 
46.9659 6.15996 6.89378 
47.8639 7.92132 6.73985 
34.6626 -16.4878 7.37885 
35.8273 -14.1993 7.37472 
38.0098 -10.334 7.38649 
45.8479 3.91171 7.28782 
46.1137 4.45211 7.41972 
34.6341 -16.6682 8.00469 
31.3442 -15.5747 7.86831 
28.7924 -14.2014 8.14693 
35.7372 -14.508 8.04191 
21.9481 -10.412 7.92455 
38.0523 -10.3023 7.84173 
45.8474 3.8562 7.97418 
30.6722 -15.2098 8.57963 
35.7686 -14.4038 8.71633 
27.46 -13.4645 8.83044 
38.0096 -10.3777 8.60088 
45.8181 3.80117 8.66465 
34.6569 -16.563 9.43746 
35.9299 -13.9064 9.60212 
22.551 -10.7523 9.60277 
38.1033 -10.096 9.54393 
45.8126 4.11924 9.39315 
34.6648 -16.5743 10.1754 
32.2341 -15.9946 9.90541 
35.7682 -14.2521 10.0048 
38.0476 -10.1231 9.96958 
45.778 4.13919 9.93726 
34.687 -16.4995 10.883 
34.5625 -16.4137 11.3175 
48.5527 9.58844 11.4 
35.2042 -14.8384 0.583019 
39.4957 -7.20745 0.631975 
35.2142 -14.8158 1.05427 
36.646 -11.9789 0.935431 
36.781 -11.8652 1.16419 
34.3737 -16.4137 1.85544 
35.2172 -14.7986 1.73062 
36.5886 -11.9557 1.79397 
36.7702 -11.8682 1.72968 
20.9038 -9.44573 1.81943 
39.4674 -7.21195 1.7787 
34.372 -16.4178 2.4427 
35.2181 -14.787 2.41893 
36.6813 -11.9392 2.51624 
20.81 -9.39887 2.40745 
39.4617 -7.20954 2.41571 
34.3853 -16.3719 2.91261 
31.413 -15.1947 3.14675 
35.2152 -14.7975 3.1472 
36.6983 -11.9561 3.22572 
21.2262 -9.63182 3.25095 
39.4571 -7.20763 3.11843 
32.1515 -15.6097 3.7626 
35.2227 -14.7543 3.83164 
36.6847 -12.0614 3.85956 
39.4401 -7.23675 3.90956 
31.4059 -15.1925 4.39072 
35.3562 -14.488 5.28934 
39.4366 -7.13867 5.22232 
34.3802 -16.4018 5.9647 
36.5902 -12.2977 5.9819 
39.3661 -7.22061 6.02287 
39.5813 -6.8688 5.85307 
35.0256 -15.6319 6.87669 
25.4943 -12.207 6.81432 
39.3973 -7.36297 6.59439 
49.2664 10.3824 6.63668 
34.9517 -15.9911 7.33658 
36.2377 -13.4442 7.35118 
38.6179 -9.23211 7.60527 
47.4402 6.83243 7.2949 
34.9453 -16.0682 8.12871 
22.6848 -10.8403 7.99082 
38.5644 -9.39421 8.11259 
47.364 6.60792 7.983 
34.838 -16.2864 8.84342 
34.9495 -16.0407 8.70886 
38.4425 -9.59556 8.92141 
38.5895 -9.29378 8.75064 
46.9933 5.9367 8.82906 
47.3135 6.52607 8.73967 
38.6154 -9.20344 9.3984 
47.0836 6.54402 9.62453 
47.3318 7.08292 9.44946 
36.0711 -13.715 9.89621 
38.5545 -9.19916 9.93496 
38.5831 -8.81247 10.0158 
47.2495 6.71896 10.1152 
34.3193 -17.125 10.8384 
34.9411 -16.01 10.9165 
34.853 -15.9615 11.3089 
48.5774 9.50648 11.3109 
28.3654 -2.84159 17.2082 
26.1795 -1.62282 17.799 
37.7071 -10.4096 0.59633 
41.0024 -4.41707 0.625037 
31.4073 -15.1966 1.07276 
36.0628 -12.9174 1.13977 
37.7084 -10.3925 1.06148 
41.0695 -4.30248 1.13033 
34.4216 -16.3184 1.93381 
32.163 -15.6208 1.81343 
36.1743 -12.7261 1.7696 
37.681 -10.4085 1.74336 
41.0344 -4.33137 1.79725 
32.8391 -15.9816 2.43369 
36.1438 -12.7843 2.44285 
37.6701 -10.4003 2.45203 
32.8287 -15.9602 3.14177 
35.0834 -15.0134 3.21639 
36.0759 -12.9218 3.14849 
37.5608 -10.616 3.24236 
37.6301 -10.4527 3.10479 
40.7127 -4.95406 3.2121 
34.3627 -17.3749 3.95902 
31.4066 -15.1926 3.86004 
35.0574 -15.0274 3.85125 
35.8714 -13.6033 4.01209 
36.055 -13.1141 3.87933 
37.5161 -10.6765 3.88403 
22.6038 -10.3778 3.85683 
31.4009 -15.1965 4.54306 
34.9577 -15.1919 4.74119 
35.0442 -15.0327 4.5013 
35.9031 -13.5757 4.59333 
37.4745 -10.6939 4.53337 
17.5805 -7.6215 4.70739 
40.65 -5.05334 4.60884 
34.9703 -15.1651 5.275 
37.4459 -10.7359 5.20729 
40.5102 -5.30442 5.2966 
37.4078 -10.7677 5.94518 
17.8826 -7.81347 6.07583 
40.4938 -5.18982 6.1046 
40.6204 -4.94592 5.99801 
40.7682 -4.672 5.77684 
32.0909 -15.6752 6.52644 
34.9349 -15.3388 6.38084 
37.3191 -10.9887 6.43996 
40.2917 -5.81801 6.81714 
40.5083 -5.25238 6.46228 
35.4966 -14.8384 7.51006 
35.6378 -14.4158 7.31667 
35.764 -14.2055 7.21811 
36.9764 -12.0936 7.34775 
39.8511 -6.87314 7.29086 
34.7493 -16.4789 8.02464 
35.5113 -14.8861 8.01048 
36.6585 -12.8385 8.10388 
36.8732 -12.4342 8.02368 
39.4347 -7.84957 7.96788 
39.5987 -7.50328 8.0023 
48.6554 8.9478 8.17649 
48.9112 9.33559 8.02711 
33.3952 -16.8112 8.80032 
34.7229 -16.493 8.72826 
35.485 -14.9021 8.74083 
36.6755 -12.8059 8.87442 
36.8226 -12.4981 8.64082 
39.3634 -7.9657 8.78531 
39.635 -7.41341 8.62627 
48.506 8.66481 8.92112 
35.4713 -14.7886 9.48449 
36.7713 -12.342 9.49533 
19.2696 -8.90351 9.36276 
48.5325 9.26526 9.46593 
35.348 -14.9007 9.88974 
36.6987 -12.3542 9.95204 
39.3301 -7.79191 9.98256 
48.6317 9.33334 10.8076 
48.6283 9.40904 11.3379 
41.0575 -4.34668 0.633338 
32.1671 -15.6047 1.25906 
36.143 -12.7762 1.22341 
41.0435 -4.31621 1.81768 
37.6264 -10.465 2.97577 
35.9265 -13.4647 4.0975 
34.9851 -15.1417 4.81532 
35.9214 -13.5406 4.6037 
37.4572 -10.7208 5.19739 
34.9546 -15.1917 5.94594 
29.2432 -14.0866 6.52119 
28.1149 -13.5931 6.85225 
37.0354 -11.8121 6.81871 
22.9722 -10.6847 6.59354 
18.2708 -8.1561 6.83696 
40.267 -5.82819 6.78673 
35.5504 -14.767 7.56738 
35.7324 -14.2086 7.1398 
19.0144 -8.79021 7.53664 
39.8734 -6.81707 7.16271 
36.7323 -12.7225 8.06905 
36.8437 -12.4918 7.98745 
39.4292 -7.8759 8.00167 
39.5547 -7.57706 7.96226 
48.6864 9.00142 8.18077 
48.8805 9.31639 7.91614 
33.3784 -16.8056 8.79379 
36.7316 -12.7179 8.8484 
36.8084 -12.5351 8.54671 
39.5735 -7.51643 8.52504 
48.4618 8.57921 8.92125 
48.7985 9.20075 8.63095 
36.8029 -12.3887 9.47484 
19.1588 -8.86393 9.27176 
48.6263 9.22604 9.418 
31.4694 -15.5271 10.0116 
35.4248 -14.8049 9.86239 
35.4357 -14.6142 9.97439 
36.7364 -12.4626 9.94127 
39.3598 -7.80175 9.94215 
15.8576 -5.95745 11.0199 
48.6709 9.29217 10.7776 
33.7836 -16.9318 11.3114 
34.6085 -16.5428 11.2443 
48.6537 9.36032 11.3514 
29.2048 -13.7624 0.630391 
37.4872 -10.7343 0.57053 
35.2363 -14.7809 1.24248 
35.3517 -14.5952 0.979737 
37.4694 -10.8851 1.10413 
40.3316 -5.27935 1.0185 
46.1574 5.04659 0.942791 
34.6846 -15.8301 1.92397 
25.5248 -12.0078 1.8061 
36.1244 -12.83 2.46123 
37.3475 -11.0043 2.41486 
40.001 -5.72954 2.52401 
45.638 4.04276 2.46419 
34.6145 -15.9712 3.01622 
35.1426 -14.9227 3.14264 
37.3328 -10.9814 3.16797 
39.5001 -7.13962 3.21162 
45.5584 3.99407 3.20954 
34.1507 -17.421 3.99807 
34.4716 -16.2101 3.98339 
35.0978 -14.955 3.8574 
35.9987 -13.138 3.7789 
36.9795 -11.7201 3.93921 
37.3369 -10.9514 3.71686 
34.4658 -16.2634 4.63022 
35.8513 -13.6981 4.59235 
37.0518 -11.6448 4.35188 
37.1337 -11.2242 4.59466 
37.2755 -11.0098 4.47718 
39.3987 -7.25975 4.52775 
34.4351 -16.2994 5.23691 
34.9887 -15.1318 5.41074 
35.0519 -15.0262 5.09507 
25.5458 -12.0041 5.06239 
37.0113 -11.5328 5.32577 
45.0813 3.18752 5.09878 
35.7549 -13.7746 5.9237 
36.9595 -11.5751 5.96363 
14.8149 -6.17172 5.92041 
44.6722 2.39723 5.89358 
35.6173 -14.2159 6.70273 
35.7632 -13.7866 6.40384 
39.0068 -8.02441 6.59769 
43.9995 0.989605 6.71495 
44.4288 1.75257 6.69109 
31.4866 -15.4478 7.17284 
35.4852 -14.8601 7.37712 
36.8192 -12.3276 7.16666 
38.674 -8.97803 7.13383 
43.0955 -1.03935 7.40692 
43.3286 -0.600305 7.21229 
35.4111 -15.0714 8.02645 
36.4965 -13.1095 7.95662 
22.5337 -10.7648 7.90515 
38.2084 -10.0448 8.00661 
38.3822 -9.69165 7.86911 
43.0973 -1.1202 7.98132 
31.3467 -15.5587 8.90661 
35.3579 -15.1319 8.73634 
36.3825 -13.2448 8.52165 
42.4238 -2.38793 8.88375 
42.8263 -1.63369 8.71197 
32.2178 -16.0178 9.31246 
29.519 -14.5372 9.26133 
36.2454 -13.4738 9.53904 
15.5707 -6.84189 9.60356 
42.4859 -1.805 9.58799 
35.0954 -15.8419 10.387 
35.3069 -15.103 9.885 
29.274 -14.3809 9.90548 
42.2425 -2.2707 10.0017 
34.4647 -16.9178 10.6934 
34.5395 -16.743 10.9302 
27.0662 -12.8151 0.61673 
36.9934 -11.7033 0.517326 
38.9648 -8.13132 0.623394 
36.8764 -11.7974 1.2528 
38.8286 -8.32861 0.936639 
42.4599 -1.7445 0.985997 
34.4811 -16.2077 2.00802 
38.6806 -8.49293 1.69282 
42.345 -1.94009 1.68353 
34.4907 -16.1886 2.43044 
32.9545 -16.0591 2.62561 
30.4442 -14.7252 2.39153 
31.4061 -15.197 2.45646 
35.0495 -15.0606 2.49897 
35.5674 -14.2251 2.57458 
35.7022 -14.0008 2.67893 
36.8324 -11.8333 2.39493 
38.5971 -8.61941 2.48092 
42.1336 -2.183 2.44914 
42.2968 -1.96986 2.36582 
34.9543 -15.2253 3.20161 
35.6179 -14.1082 3.17202 
36.7964 -11.8645 2.98344 
38.4335 -8.95922 3.13419 
33.8395 -16.6266 3.59539 
35.5719 -14.2124 3.9176 
38.2693 -9.27842 3.91522 
38.4168 -8.99629 3.84797 
41.8989 -2.60606 3.87175 
34.8149 -15.5067 4.68162 
36.5543 -12.3933 4.54515 
38.1613 -9.479 4.5432 
41.9123 -2.53054 4.38248 
34.7973 -15.5251 5.22965 
36.5019 -12.486 5.11464 
37.9894 -9.8599 5.34857 
41.3456 -3.74556 5.42089 
41.6094 -3.12199 5.1547 
30.2343 -14.5886 6.04644 
28.6315 -13.6714 6.03766 
36.3245 -12.8417 5.97588 
37.9025 -9.93818 6.12175 
38.0199 -9.7246 5.8979 
41.2119 -3.90463 6.0702 
41.3515 -3.69801 5.77774 
28.3949 -13.6507 6.57883 
36.0359 -13.4953 6.7326 
37.5228 -10.7203 6.69254 
37.7202 -10.3919 6.66164 
37.8633 -10.1188 6.54724 
41.2036 -4.07958 6.57265 
35.1145 -15.5806 7.57113 
36.0983 -13.6094 7.36062 
37.3731 -11.4149 7.48112 
37.5277 -11.0964 7.20663 
40.096 -6.53992 7.51191 
40.3722 -5.94638 7.25313 
49.4384 10.2734 7.39315 
35.1019 -15.7324 8.00278 
35.9097 -14.1595 8.05345 
40.003 -6.80211 8.10392 
35.047 -15.8227 8.68152 
36.9494 -12.3338 8.71313 
37.2355 -11.7348 8.77465 
48.7861 9.17186 8.64937 
37.0131 -12.0859 9.57347 
37.1143 -11.9217 9.30837 
37.2183 -11.714 9.45978 
39.6747 -7.10355 9.51777 
48.688 9.21536 9.33068 
34.4082 -17.0435 10.1536 
34.9234 -16.0461 9.97689 
35.7433 -14.3356 9.96623 
36.8752 -12.2866 9.91228 
39.493 -7.18754 9.98134 
48.4792 8.91166 10.0748 
48.6296 9.21134 10.2804 
33.9529 -17.092 10.7885 
34.3667 -17.0949 10.7621 
34.7934 -16.2802 10.8847 
34.7286 -16.382 11.2732 
35.5528 -14.2634 0.596578 
37.9006 -10.1835 0.569928 
40.4626 -5.20812 0.554129 
34.9006 -15.2876 1.20189 
35.5583 -14.2676 1.04462 
37.861 -10.1952 1.09417 
34.9031 -15.273 1.76261 
35.5176 -14.3391 1.75027 
37.7434 -10.3594 1.81034 
40.4093 -5.23224 1.68465 
46.4164 5.42246 1.63161 
34.8774 -15.3407 2.2822 
40.3393 -5.27183 2.43897 
46.3384 5.36387 2.37416 
35.4318 -14.431 3.13943 
36.5629 -12.0582 3.0743 
45.8718 4.5204 3.05839 
35.3714 -14.4889 3.84475 
22.2945 -10.2038 3.82743 
40.0923 -5.75003 3.84087 
45.6008 4.03322 3.90055 
35.1803 -14.8243 4.73379 
35.3172 -14.5762 4.4768 
36.1099 -13.2067 4.4862 
37.3838 -10.8278 4.56583 
39.6913 -6.70936 4.61081 
45.5757 4.01012 4.34168 
22.2581 -10.1999 5.22972 
39.4993 -7.08452 5.15812 
39.5779 -6.91786 5.349 
34.5903 -16.0003 5.95452 
37.2709 -11.0243 5.82448 
39.3882 -7.17623 6.02551 
39.5358 -6.92926 5.78564 
44.8514 2.69811 6.05543 
33.7587 -16.6019 6.57991 
34.5081 -16.2463 6.60767 
36.8244 -12.188 6.84235 
37.1536 -11.3863 6.54501 
38.7306 -8.82634 6.89386 
39.3184 -7.44263 6.5034 
44.0435 0.999379 6.7807 
35.6507 -14.428 7.41035 
36.6319 -12.7824 7.54434 
36.7599 -12.5157 7.25852 
38.6274 -9.20133 7.53759 
43.7451 0.180732 7.18781 
34.8467 -16.274 7.98571 
26.2765 -12.8232 7.99664 
38.4262 -9.64496 8.01414 
38.5561 -9.39123 7.91131 
16.4836 -7.42488 7.98339 
43.0723 -1.16802 8.03381 
34.7921 -16.3584 8.71987 
36.5239 -13.0419 8.71951 
38.2242 -10.0257 8.78002 
38.3899 -9.69128 8.62487 
32.4285 -16.1393 9.31772 
35.395 -14.9571 9.47554 
29.6029 -14.5401 9.39744 
36.3638 -13.1414 9.64094 
42.5953 -1.81748 9.60402 
36.287 -13.0521 9.97585 
42.3489 -2.24754 9.95719 
37.3882 -10.9135 0.601329 
39.043 -8.04504 0.659609 
29.2147 -13.7814 1.22583 
36.1988 -12.66 1.09279 
37.1931 -11.3108 1.21441 
24.5256 -11.1808 1.25168 
37.3825 -10.9863 1.00064 
39.0065 -8.09512 1.05508 
42.8337 -1.05752 1.18981 
43.159 -0.268727 0.857098 
33.8219 -16.5952 2.00071 
35.3479 -14.5965 1.75818 
36.1256 -12.8261 1.75973 
36.9716 -11.7177 1.88529 
38.9489 -8.14699 1.76794 
42.6523 -1.30908 1.81225 
42.7843 -1.1329 1.66154 
30.7001 -14.8237 2.60895 
30.8967 -14.9212 2.34219 
42.3467 -1.94424 2.52542 
42.6615 -1.2985 2.39664 
34.2014 -16.8552 3.33096 
33.9546 -16.5977 3.10595 
31.8609 -15.4609 2.99136 
35.8162 -13.7604 3.33361 
35.9903 -13.056 3.15264 
36.9152 -11.779 3.16246 
38.8514 -8.26431 3.01206 
42.3484 -1.91452 3.18351 
34.6157 -15.9824 3.86971 
35.8228 -13.7596 3.92944 
36.8927 -11.8102 3.81616 
38.6237 -8.66681 3.85999 
42.3418 -1.86573 3.75044 
33.8041 -16.5933 4.61578 
34.5179 -16.1687 4.62189 
34.6106 -15.9804 4.36774 
38.4568 -8.91426 4.63789 
42.0517 -2.35624 4.5458 
31.3018 -15.1351 5.43088 
35.0677 -14.9972 5.06618 
35.5724 -14.1203 5.46117 
35.6668 -13.9496 5.2121 
27.432 -13.0078 5.09871 
38.2793 -9.26577 5.27101 
38.4359 -8.94755 5.10996 
41.7032 -2.96307 5.28274 
41.8998 -2.61409 5.08776 
35.5585 -14.1641 5.95885 
38.1577 -9.51806 5.92553 
41.613 -3.19347 5.93709 
34.4005 -16.5197 6.56655 
38.2196 -9.54202 6.63811 
41.0398 -4.38773 6.65461 
41.6445 -3.19309 6.49797 
31.612 -15.646 7.54235 
37.6082 -11.0008 7.34884 
40.4213 -5.94246 7.41462 
40.823 -5.13071 7.27026 
33.0018 -16.5986 8.0144 
31.3488 -15.5737 8.21159 
31.5658 -15.7048 7.95784 
35.2079 -15.5179 8.05238 
35.2988 -15.2555 8.03057 
36.1064 -13.8119 8.05526 
37.4146 -11.4706 8.01891 
40.4014 -6.05571 7.95203 
49.0814 9.5619 7.96493 
35.144 -15.6347 8.72387 
35.3341 -15.1641 8.59638 
36.0914 -13.7857 8.59696 
39.9937 -6.79428 8.75673 
48.8108 9.19758 8.5857 
35.8541 -14.1987 9.30696 
35.9732 -13.8611 9.52647 
39.7417 -7.06846 9.62557 
39.8257 -6.86483 9.44565 
39.9428 -6.80553 9.38316 
34.9679 -15.9794 10.1623 
35.0357 -15.8447 10.0624 
35.8023 -14.2686 9.92641 
37.1522 -11.6428 9.98351 
39.6281 -7.14989 9.93989 
34.4138 -17.0103 10.7648 
34.8981 -16.0632 11.0451 
36.09 -12.8321 0.630169 
32.8051 -15.962 1.2105 
36.072 -12.8654 0.947724 
38.2383 -9.31822 1.13225 
47.6203 7.67292 0.863931 
38.2147 -9.30935 1.78208 
36.6439 -11.9641 2.622 
23.7105 -10.7996 2.39184 
38.1087 -9.51229 2.50818 
18.0707 -7.93889 2.61951 
40.6555 -5.01914 2.39849 
47.4148 7.51644 2.39245 
35.6879 -13.9843 3.31915 
36.6463 -11.9946 3.15425 
38.0293 -9.62658 3.18651 
40.4989 -5.16306 3.1392 
46.415 5.43583 3.29589 
34.5929 -16.0248 3.85766 
35.6036 -14.1384 3.90445 
35.6725 -13.996 3.70753 
36.589 -12.1872 3.85915 
37.7023 -10.3583 3.9073 
40.3935 -5.33822 3.8788 
46.3553 5.39166 3.94229 
34.2612 -17.3402 4.61575 
34.5726 -16.0455 4.30378 
35.0343 -15.0545 4.39183 
36.5506 -12.3933 4.37805 
40.1167 -5.91819 4.66288 
40.3363 -5.4748 4.38319 
45.8742 4.57365 4.71293 
31.4451 -15.2083 5.41267 
36.3015 -12.8562 5.22175 
37.6264 -10.4316 5.26053 
45.8961 4.65683 5.35909 
34.7965 -15.547 6.02976 
34.8747 -15.3457 5.75419 
37.4469 -10.6952 6.02765 
37.5784 -10.4109 5.75685 
45.5391 4.00545 6.18077 
45.7014 4.27934 5.96534 
32.2592 -15.7965 6.62691 
35.3796 -14.5037 6.46594 
36.1875 -13.0963 6.53822 
37.1871 -11.479 6.75556 
37.4034 -10.9072 6.5613 
39.11 -8.07991 6.85809 
39.6504 -6.86032 6.48155 
45.4007 3.66462 6.62688 
34.766 -16.0775 7.07631 
35.1514 -15.4764 7.60985 
37.2429 -11.63 7.24569 
39.1159 -8.24166 7.32784 
34.3159 -17.151 7.79099 
38.672 -9.23106 7.99963 
38.8018 -8.97432 7.97975 
43.8587 0.260442 7.9357 
34.5919 -16.7045 8.59851 
35.7743 -14.3805 8.60953 
36.692 -12.7685 8.78355 
38.572 -9.37879 8.80013 
38.7429 -9.01846 8.6327 
42.9055 -1.53844 8.75824 
43.2437 -0.867252 8.83563 
43.4794 -0.402365 8.74505 
34.9434 -16.0146 9.46427 
35.5818 -14.5697 9.45362 
36.609 -12.8145 9.49283 
38.3755 -9.45824 9.6057 
38.5546 -9.31744 9.30999 
42.9974 -1.00654 9.44549 
34.8394 -16.2372 10.1819 
36.4962 -12.9611 9.97139 
38.2739 -9.48573 9.95902 
42.8767 -0.9643 9.89546 
33.7723 -17.0206 10.6044 
15.5843 -6.54321 10.7987 
38.4077 -9.03554 1.02667 
47.5525 7.60774 1.15264 
36.0137 -13.0332 1.615 
38.301 -9.16349 1.75431 
34.0401 -16.7415 2.60787 
34.3789 -16.3896 2.64141 
32.8331 -15.9766 2.62203 
28.1221 -13.438 2.3427 
35.8258 -13.7446 2.62833 
35.9695 -13.0713 2.30251 
38.1731 -9.39995 2.52607 
40.6762 -5.00462 2.4288 
34.3647 -16.403 3.05418 
29.2299 -13.7983 3.26641 
36.8349 -11.8315 2.98337 
38.0807 -9.54478 3.17424 
40.5531 -5.12077 3.23881 
40.6768 -5.00288 3.0587 
38.0725 -9.57772 3.76309 
40.4509 -5.2661 3.88538 
34.6037 -16.0066 4.5558 
35.6259 -14.0643 4.61404 
35.6693 -13.9803 4.36196 
24.4051 -11.3436 4.63748 
37.7652 -10.2469 4.69909 
46.3989 5.45318 4.4513 
34.508 -16.1509 5.45659 
34.5639 -16.0406 5.2092 
29.4734 -14.1415 5.12802 
35.5699 -14.1267 5.24097 
36.3636 -12.7572 5.40086 
37.7037 -10.2975 5.28454 
40.0994 -5.98083 5.19372 
46.102 5.00723 5.28561 
46.3201 5.44501 5.13301 
37.6298 -10.3603 5.9098 
39.8426 -6.46031 6.04232 
40.0118 -6.14754 5.87944 
36.1101 -13.3904 6.8495 
24.6917 -11.7367 6.82407 
37.2022 -11.5973 6.86349 
37.4446 -10.8808 6.60891 
45.6946 4.04567 6.70903 
37.1723 -11.8024 7.28872 
39.1388 -8.25063 7.45045 
39.2274 -8.01025 7.24021 
39.4991 -7.48506 7.18518 
44.556 1.66126 7.17559 
36.9807 -12.2589 8.01445 
38.9148 -8.78033 8.05057 
39.1029 -8.3615 7.9208 
43.8769 0.268289 8.01245 
38.8104 -8.92877 8.7082 
43.5055 -0.410076 8.83312 
43.8172 0.20586 8.78928 
38.6036 -9.23154 9.52762 
38.7422 -8.72207 9.48092 
43.5249 -0.260138 9.52479 
35.0203 -15.8453 9.98661 
30.3871 -15.0022 9.9114 
35.6079 -14.5713 9.90487 
36.6064 -12.7865 10.0214 
34.8673 -16.0237 11.2654 
37.0324 -11.672 0.567705 
35.3603 -14.5956 1.28696 
42.5629 -1.54305 0.908761 
42.4792 -1.67039 1.82926 
42.64 -1.34461 1.6693 
34.4724 -16.2374 2.62944 
35.371 -14.528 2.45364 
42.528 -1.57099 2.48437 
34.8378 -15.4528 3.14578 
42.3867 -1.91027 3.23613 
34.8265 -15.4917 3.85618 
29.4548 -14.0913 4.059 
42.3741 -1.90587 3.90517 
34.4748 -16.2374 4.56846 
34.8152 -15.4967 4.56483 
29.3531 -14.0517 4.68565 
36.1352 -13.1147 4.44548 
36.9929 -11.7232 4.53561 
42.3554 -1.94281 4.625 
34.8034 -15.503 5.27326 
30.8723 -14.9125 5.09422 
38.7115 -8.52475 5.27007 
42.4577 -1.60663 5.21666 
42.5911 -1.31475 5.47897 
34.8158 -15.5019 5.98168 
30.9294 -14.9752 6.09437 
35.3259 -14.5623 5.96304 
35.9815 -13.3564 5.98797 
37.0078 -11.4946 5.97906 
38.6547 -8.64206 5.78343 
38.8273 -8.13428 6.02819 
42.4576 -1.59298 6.08233 
38.9311 -8.20905 6.59866 
41.8202 -3.00543 6.70338 
42.4044 -1.84352 6.56098 
34.8174 -16.1912 7.47852 
36.694 -12.6969 7.6152 
36.8078 -12.4634 7.30557 
32.0756 -15.9905 7.99575 
38.2428 -9.97917 8.04081 
41.5201 -4.00063 8.15239 
35.1987 -15.4902 8.82929 
18.6888 -8.62283 8.8563 
41.4119 -4.24641 8.86782 
41.5585 -3.94336 8.66885 
33.9897 -17.0992 9.39956 
34.7736 -16.3089 9.46318 
35.2495 -15.2458 9.44803 
35.8299 -14.1747 9.47301 
28.2355 -13.8332 9.31766 
36.7803 -12.4206 9.5065 
38.3377 -9.59043 9.53006 
41.5275 -3.91015 9.41844 
33.888 -17.0537 9.97618 
34.7733 -16.3449 10.0829 
35.2617 -15.2191 9.86909 
38.2009 -9.94245 9.91625 
41.588 -3.29081 9.93684 
36.1312 -12.784 0.597062 
42.5464 -1.53554 1.90213 
34.8332 -15.4704 2.67368 
29.3671 -14.0503 3.9896 
36.078 -13.1996 4.34786 
31.7878 -15.3956 5.404 
42.52 -1.49177 5.22123 
31.7966 -15.4167 5.95961 
29.3523 -14.0876 6.38968 
35.3045 -14.6157 6.44504 
36.8726 -11.9927 6.88205 
41.9081 -2.9116 6.80609 
42.128 -2.46981 6.75732 
42.3688 -1.89812 6.53321 
27.9272 -13.5976 7.1899 
32.1064 -16.0075 7.99203 
25.3859 -12.3509 7.99256 
18.6997 -8.61919 8.2145 
41.4121 -4.273 8.05498 
41.5265 -3.9932 8.10228 
35.2201 -15.4393 8.86007 
38.2292 -9.99673 8.79701 
41.5123 -4.03095 8.61539 
27.8526 -13.5547 9.62584 
28.136 -13.7959 9.23966 
38.3187 -9.65652 9.49224 
41.5488 -3.8796 9.38639 
34.4815 -16.8616 9.97551 
41.6406 -3.39019 9.91854 
36.459 -12.1319 0.584556 
29.8773 -14.1523 0.926607 
37.5488 -10.7282 1.08859 
46.3941 5.38967 1.05078 
35.0505 -15.0406 1.8768 
36.5233 -11.9688 1.87121 
37.5519 -10.669 1.60509 
37.6704 -10.426 1.84066 
46.3753 5.38014 1.69117 
34.6579 -15.8783 2.6612 
35.0447 -15.076 3.18212 
35.5623 -14.2236 3.15427 
46.3864 5.39658 3.11791 
36.2254 -12.9082 3.97859 
36.505 -12.2483 3.76739 
40.3613 -5.36696 3.77342 
35.58 -14.1434 4.54083 
36.4636 -12.5455 4.72349 
40.1605 -5.82686 4.55645 
35.0514 -15.0243 5.24318 
40.1203 -5.94579 5.2398 
33.4312 -16.3951 6.0061 
35.0684 -15.0106 5.9429 
