ply
format ascii 1.0
comment Created by CloudCompare v2.11.1 (Anoia)
comment Created 2026/6/3 下午5:13
obj_info Generated by CloudCompare!
element vertex 1872
property float x
property float y
property float z
end_header
25.0045 -0.378313 3.74432 
26.7033 0.452347 4.04399 
25.0405 0.377968 7.40512 
23.505 0.172059 10.2195 
26.6554 0.509274 9.97579 
26.6626 0.537511 10.5852 
23.5486 -0.0564272 13.2168 
25.0671 -0.384156 22.3253 
25.6111 -7.39135 25.6367 
23.5979 0.75092 25.9556 
23.5551 1.23215 31.7053 
23.61 1.35953 32.3974 
25.4723 -0.818529 2.67157 
27.0016 -0.447944 3.21761 
22.6681 -0.783171 3.59078 
27.7797 3.92622 3.65798 
27.6727 5.36417 3.85583 
25.6024 0.426842 4.31556 
25.6219 0.541707 5.79328 
24.0989 0.406986 9.41712 
25.6296 0.56352 9.27931 
25.6377 0.57862 10.0346 
25.6528 0.586283 11.3771 
25.6426 0.42631 12.0416 
25.6201 0.127471 15.818 
25.6406 0.255334 16.3981 
25.6081 -0.216172 18.5992 
24.1401 -0.74192 20.0128 
25.4192 -2.25286 23.1961 
26.1472 -6.23663 24.151 
27.0846 -0.355945 24.3586 
26.937 -1.33845 24.6451 
26.0656 -7.1861 25.5934 
25.9241 -8.09188 26.1408 
26.0254 -7.41731 25.9476 
28.1716 0.81955 0.486315 
26.121 -0.258532 1.95925 
24.818 -0.78456 2.62236 
23.3497 -0.957152 2.93512 
24.7942 -0.578793 3.40497 
28.016 0.607056 2.87556 
26.4905 0.974236 12.0926 
24.8988 0.14343 12.7912 
24.6435 -0.0455432 13.7266 
24.7511 -0.0673162 14.9848 
26.1526 0.442277 15.0889 
26.2115 0.439495 15.698 
26.1477 0.477967 16.6096 
26.4235 0.812094 16.3388 
26.2383 0.492136 17.202 
24.8479 -0.337679 17.7775 
24.8474 -0.474288 19.1907 
24.852 -0.4034 20.0178 
26.3303 0.232442 20.0102 
24.7327 -0.789671 21.4096 
26.302 -0.431555 22.8063 
26.1706 -1.56807 23.4552 
25.6033 -6.97156 24.6028 
25.4426 -8.77585 25.7996 
25.3921 -10.1729 26.1143 
24.9489 1.34752 31.8065 
26.6885 0.292338 1.52337 
24.9408 -0.810787 2.69671 
23.4326 -0.751438 3.58936 
27.0506 6.01284 4.11657 
26.8898 2.66927 4.90127 
23.4082 0.278039 9.61978 
24.9863 0.136298 11.0104 
26.7317 1.0965 11.6538 
26.7519 1.29892 13.0616 
26.7037 0.799905 14.309 
26.7176 1.00958 15.3417 
26.7179 1.06366 15.8035 
23.5619 -0.0135332 16.4297 
23.5731 -0.0601863 17.7673 
26.6037 -0.0618701 22.9099 
26.4318 -1.27392 23.6604 
26.3593 -3.69672 23.9048 
26.0155 -7.24052 25.5633 
23.5665 1.42542 32.2501 
25.0023 -0.823901 2.73388 
21.7802 0.566064 3.95256 
23.4098 0.272238 4.36291 
26.7039 0.800283 7.1558 
25.0342 0.416082 9.60732 
25.035 0.127715 11.0699 
25.0365 0.24717 11.6166 
26.7549 1.34812 12.9752 
25.0345 -0.182285 17.7563 
26.6676 0.224322 21.9993 
25.9315 -8.04232 26.2087 
25.0877 -6.83578 25.9804 
25.0288 -11.369 26.8056 
23.539 1.15057 31.5571 
27.013 -0.362524 3.24535 
27.8895 4.60287 3.43359 
22.2178 0.831334 3.98912 
27.785 3.03847 3.84305 
25.6826 0.597263 7.40815 
24.1011 0.350569 7.96314 
25.6816 0.601575 8.82156 
25.6846 0.581872 10.2295 
24.1319 0.110908 11.6089 
25.6822 -0.120294 20.5954 
25.7657 0.0659262 21.2522 
25.6092 -1.57932 23.0587 
26.7049 -4.77678 25.0385 
26.926 -2.69816 25.0368 
27.0111 -1.27428 24.7451 
27.1918 -0.223983 24.5198 
26.6671 -5.10956 25.5055 
25.4402 -10.0303 26.1539 
26.6425 -5.30763 26.1785 
25.4554 -10.0179 26.686 
26.6509 -5.19985 26.7669 
24.8918 0.200739 4.34068 
26.3354 0.393805 4.47929 
23.2653 0.419831 6.60199 
24.8925 0.604996 8.83369 
26.394 0.890147 13.4614 
24.9496 0.0837952 15.0355 
24.8003 -0.0988193 15.7994 
26.3941 0.767307 16.3498 
26.3624 0.579013 19.0092 
24.8159 -0.769362 21.4997 
24.9896 -0.532236 21.2052 
26.4076 -1.1062 23.5375 
26.3306 -4.77048 24.4028 
26.3281 -3.94314 23.9867 
26.2601 -6.55728 24.8387 
26.32 -6.6183 25.6382 
25.533 -8.98643 26.2197 
26.32 -6.53637 26.2916 
25.0296 -11.3986 26.7715 
25.3883 -8.74095 26.8831 
26.32 -6.47552 26.7954 
26.363 1.9149 29.7526 
28.0909 1.00034 1.27401 
28.1432 1.01953 2.38706 
28.0722 0.994241 3.4155 
28.1553 2.90275 3.63784 
24.8275 0.189674 4.28735 
24.8163 0.423192 4.97005 
23.1902 0.390882 5.74137 
24.8187 0.411148 5.85082 
23.1876 0.447201 6.53198 
23.2052 0.403015 8.14787 
23.2057 0.442963 8.86409 
24.8212 0.599422 8.85659 
26.3264 0.377899 9.0344 
23.2123 0.432338 9.59141 
24.8351 0.394206 9.71936 
26.3308 0.516521 9.63767 
23.2195 0.422303 10.2947 
24.8534 0.173602 11.366 
26.3985 0.855169 12.1815 
26.3844 0.975216 12.799 
24.8181 -0.0857759 15.821 
26.4059 0.774636 15.8466 
24.8169 -0.238764 16.6261 
26.3555 0.349644 20.5681 
24.9361 -0.541645 21.1593 
26.3607 0.206022 21.2761 
26.3312 -4.02084 24.0391 
25.4587 -8.82671 26.765 
26.9858 0.949483 3.93574 
27.1346 2.48736 4.08254 
23.9506 0.207327 4.51373 
27.1269 3.60268 4.25546 
21.0448 5.25893 4.22338 
23.9513 0.392757 6.86627 
25.5498 0.511527 6.8128 
23.9654 0.292376 7.88839 
26.8911 1.22845 11.6143 
24.1612 -0.0222864 12.3194 
25.5599 0.269868 13.8255 
25.5612 0.225541 14.4106 
27.0478 1.95447 16.7369 
26.9602 1.02006 17.8405 
27.0243 1.1045 18.6974 
27.0787 1.41148 19.1358 
27.0064 1.13613 19.685 
27.0021 0.723889 20.7033 
27.0103 1.06802 21.4041 
25.5753 -0.623154 22.6526 
27.0037 0.945802 22.643 
26.9923 0.639997 23.6173 
26.9964 0.739117 23.135 
26.95 -0.740074 24.499 
26.9843 0.404827 24.0903 
26.8786 -3.1394 25.1381 
26.9131 -2.56105 24.922 
26.8436 -4.28999 25.7436 
26.8535 -3.97776 25.4189 
25.3157 -10.886 26.023 
25.3616 -10.2795 26.2491 
26.8802 -2.98088 26.3545 
25.378 -10.0426 26.8208 
26.8738 -3.15011 26.9275 
26.9007 -2.15019 27.805 
25.5114 0.942306 29.6921 
25.4083 1.48836 31.5522 
25.3894 1.88558 32.3109 
27.3966 -0.155691 3.14813 
27.371 1.10343 3.74005 
27.5719 2.98771 3.94848 
27.5792 4.03503 3.81079 
27.3689 6.38288 4.07219 
22.1965 2.16618 4.48212 
25.6297 0.577567 6.90122 
25.623 0.305346 13.0203 
27.3006 2.43061 18.0184 
27.2898 2.14124 19.7364 
27.2805 1.75329 20.5969 
24.274 -0.858849 21.4141 
25.6526 -0.194635 21.4672 
27.2793 1.85071 21.3612 
27.2863 2.44606 22.0806 
27.287 2.66137 22.857 
26.0018 -4.81795 23.542 
27.2737 1.95443 23.4046 
27.2506 0.741342 24.3979 
27.2655 1.56254 23.916 
25.4207 -6.95802 24.5586 
27.2123 -0.250195 24.6751 
26.2516 -6.75186 25.5172 
27.2063 -1.75431 25.6018 
27.2152 -1.28396 25.2141 
24.8602 -11.6103 26.3335 
25.5333 -8.95906 26.1734 
26.14 -7.21296 26.0517 
27.1977 -2.1578 26.1844 
25.2166 -11.0552 26.7586 
25.4795 -8.70021 26.8561 
26.2495 -6.65332 26.7052 
26.1257 -6.00294 27.1338 
27.1922 -2.37112 26.7754 
27.2044 -1.47295 27.372 
27.2121 -0.863729 27.9541 
25.6167 1.04612 29.704 
25.5189 1.20954 30.4931 
25.4502 1.553 31.3169 
25.5121 1.70156 31.7463 
24.158 1.35805 32.4071 
22.6979 -0.828915 2.35522 
27.3537 -0.198939 3.20284 
27.3761 1.92211 3.96564 
27.4654 2.96233 4.0012 
25.6697 0.610587 6.94543 
24.1447 0.0183705 11.0704 
24.122 0.204658 11.642 
24.2025 -0.348231 13.8336 
24.2127 -0.430994 14.4813 
25.7048 -0.201539 21.5399 
25.7511 -1.24526 23.0167 
24.3241 -0.844466 23.9805 
26.2174 -6.81863 25.4567 
26.1782 -7.14484 26.0864 
25.5406 1.61812 31.2961 
25.5639 1.80816 31.8434 
23.4391 0.157411 0.609589 
26.7303 0.271939 0.814733 
28.2701 1.18761 1.06372 
22.2712 -0.789823 1.67253 
25.3476 -0.61115 2.01567 
28.2813 1.014 2.38842 
23.9515 -0.877977 3.15686 
26.7561 0.567195 3.98603 
26.8041 1.90429 4.6026 
25.452 0.479486 7.53527 
26.8181 0.522276 9.99622 
25.3894 0.207123 14.3365 
26.734 0.825277 14.3379 
25.2602 -0.0294163 17.4973 
23.67 -0.164267 17.6289 
25.3969 -0.099782 18.0247 
26.8869 1.08577 18.7237 
26.8799 0.925461 19.7735 
25.4911 -0.18699 20.5856 
26.7756 -0.959107 23.7913 
25.9669 -6.49375 24.2771 
25.5509 -6.12508 24.0305 
26.7868 -1.60571 24.2248 
26.8583 -2.54714 24.7698 
26.8419 -4.00378 25.3577 
25.4819 -9.48775 25.9612 
25.9801 -7.90141 26.1542 
26.0984 -7.40268 26.2439 
26.8296 -4.08786 26.0206 
26.8454 -3.06942 26.444 
25.4049 -9.19068 26.8626 
25.9717 -7.18836 26.7985 
26.8448 -3.31063 26.8992 
26.8047 -2.95253 27.3682 
26.8459 -2.23054 27.8651 
24.9936 1.70027 32.5494 
23.5333 0.210665 0.635714 
28.3829 0.365328 0.969628 
28.3597 1.28125 0.958566 
22.2562 -0.753751 1.57071 
22.2963 -0.95044 2.97437 
22.1447 -0.56405 3.40727 
26.832 1.21461 4.11434 
23.5224 0.29997 4.8315 
26.7869 1.86036 4.62549 
26.7991 2.61872 4.86377 
25.333 0.427908 6.84873 
25.3366 0.420598 7.59883 
25.3268 0.483992 8.26471 
25.3227 0.527012 9.19641 
25.3275 0.485061 9.9737 
25.3337 0.416684 10.739 
26.7955 1.2411 11.5828 
26.7617 1.40725 12.1826 
23.7188 -0.22053 17.5707 
23.923 -0.547831 18.0255 
25.3897 -0.168421 18.5434 
25.3913 -0.187533 20.017 
25.4559 -1.50839 22.9716 
26.729 0.14276 22.7492 
25.8429 -6.3994 23.5804 
25.7161 -6.20147 24.1119 
25.9871 -7.1301 24.9197 
26.8275 -2.99764 25.0298 
25.9917 -7.27483 25.6092 
25.5133 -9.94379 26.2968 
26.0043 -7.83096 26.127 
25.0499 -10.978 26.9686 
27.7582 1.1417 0.530655 
23.2042 -0.0917419 1.56615 
27.8591 1.1005 1.54286 
26.3658 -0.342318 2.37233 
27.7775 0.510863 3.40631 
20.65 2.69177 3.38752 
27.9655 5.19428 3.11476 
27.6082 1.2486 3.71797 
27.7341 2.37105 3.93322 
27.6926 3.2227 3.81849 
24.7608 0.42233 5.19558 
26.275 0.462984 5.29898 
24.771 0.402247 9.66435 
23.0068 0.870089 10.0171 
24.7914 0.198623 10.5975 
26.323 0.797491 12.2423 
24.7826 0.0443481 12.9488 
24.7054 -0.0415859 13.8327 
26.2266 -0.180726 19.3549 
26.2944 0.199463 19.9989 
26.2601 -1.53823 23.5744 
26.3442 -0.872134 23.3419 
26.4221 -4.65689 24.4488 
26.4054 -3.96442 24.0897 
26.5426 -5.09636 25.1568 
26.5312 -4.8766 24.83 
25.3802 -9.53071 25.8046 
26.5581 -5.39521 25.6318 
26.5623 -5.49321 26.281 
25.6403 -7.86718 27.0073 
26.5569 -5.41085 26.7994 
26.4267 -3.05036 27.6513 
26.3405 -1.49416 28.4348 
26.2716 1.66061 29.7098 
21.8836 -0.340906 0.919412 
27.8248 0.516853 3.31266 
27.805 5.29556 3.87211 
23.3947 0.364322 5.77302 
24.7881 0.475623 7.93759 
24.8176 0.0844367 13.0655 
26.3483 0.853792 12.8599 
23.2226 0.290223 14.1938 
26.3534 0.771622 15.9089 
24.8425 -0.170367 16.381 
26.3537 0.331871 19.2205 
25.8211 -6.4064 23.6032 
25.7692 -6.50445 24.2106 
26.6143 -3.51609 24.2928 
26.4887 -1.74902 23.8737 
26.6394 -3.84954 24.6666 
25.9915 -7.25167 25.5537 
26.7753 -4.57978 25.5035 
25.4961 -9.34301 26.0618 
25.5155 -9.01302 26.276 
26.7033 -4.71705 26.216 
25.2338 -10.9278 26.7531 
25.4673 -8.82993 26.8263 
25.9819 -7.22914 26.7347 
26.0572 -6.72248 26.8653 
26.7132 -4.86093 26.7125 
26.6089 -3.5538 27.2764 
26.5254 -2.51142 27.8591 
26.426 -1.27032 28.5428 
26.2408 1.54947 29.6824 
24.7165 1.28171 31.7672 
26.4065 -0.294603 0.580533 
27.8722 0.972721 1.60492 
22.1106 -0.902481 2.63107 
25.0066 -0.781318 2.39097 
27.8062 1.15818 3.63803 
27.829 2.98347 3.8567 
24.8273 0.406004 6.01848 
26.3332 0.573202 6.85374 
26.3303 0.79308 12.8903 
24.8613 0.0754617 13.8166 
24.9081 -0.393866 19.2613 
23.2095 0.415156 21.4391 
24.9749 -0.569038 22.3719 
25.8482 -6.39857 23.6149 
26.4265 -0.429559 23.3114 
25.9974 -6.82223 24.688 
26.7081 -4.97798 25.6392 
26.7441 -4.69388 25.4279 
25.008 -10.2207 27.02 
25.9786 -6.71261 26.9679 
27.4996 1.11764 0.872836 
24.2982 -0.179675 4.04191 
27.5679 1.2597 3.76259 
27.5179 2.26927 4.0103 
27.2664 3.1972 4.10114 
27.1664 4.46643 4.11484 
24.2027 0.511076 7.15038 
24.1988 0.421656 8.0133 
25.5791 0.531525 8.26141 
25.5733 0.562872 9.89083 
25.5804 0.475511 11.3981 
24.3141 -0.314819 14.3999 
27.2657 2.26653 17.7654 
27.2409 2.94855 18.4058 
27.244 2.81597 19.017 
27.2807 1.66804 20.6427 
25.7148 -6.62754 24.2098 
26.3863 -4.53403 24.3478 
27.3003 0.788421 24.4704 
26.4658 -5.09571 24.9039 
27.3187 0.217105 24.9461 
26.496 -5.42672 25.4966 
27.3717 -1.39356 25.79 
27.3429 -0.523286 25.3893 
25.5072 -9.49365 26.0804 
26.4846 -5.64105 26.3825 
26.516 -5.49576 26.0966 
27.3728 -1.45333 26.2085 
25.3877 -9.26639 26.9297 
25.7576 -7.87749 26.9138 
26.509 -5.43115 26.8479 
27.3631 -1.2163 26.8718 
26.3218 -3.19762 27.6242 
27.3175 0.0608112 27.7101 
26.1941 -1.69153 28.3566 
25.4858 1.03606 29.3196 
25.6278 1.31134 30.5181 
25.5838 1.84313 31.7941 
20.8627 0.201587 1.58253 
28.4651 0.883775 1.41788 
27.0533 1.5641 4.0513 
26.9159 2.52064 4.63698 
26.9783 3.89295 4.33156 
26.8649 3.94419 5.67076 
25.7081 0.610817 8.70796 
27.1041 1.53099 8.76451 
27.1832 0.794912 10.2177 
25.7015 0.392602 13.5866 
25.7039 0.408416 14.4874 
24.367 -0.338039 14.9585 
24.4012 -0.418069 16.6697 
24.6959 -0.404786 17.2699 
27.1591 2.04622 16.9313 
27.1693 2.01235 17.5407 
27.217 2.18531 17.9263 
24.4096 -0.511139 18.4939 
27.1495 2.39441 18.5562 
27.2547 1.78749 19.8654 
27.2601 1.75482 21.4369 
27.2166 2.39391 22.1173 
27.231 2.53707 22.8825 
26.1785 -1.61351 23.4646 
25.968 -6.4499 24.0517 
27.3662 0.196239 25.0154 
27.3239 1.17187 24.5551 
25.3815 -9.62065 25.808 
26.1912 -6.88478 25.4442 
27.3918 -0.301732 25.4679 
25.2684 -11.1333 26.2442 
25.6429 -8.66676 26.3681 
26.2403 -6.71194 26.4357 
26.7176 -4.65 26.1869 
27.448 -0.071003 26.2201 
25.069 -10.8061 27.0166 
25.4325 -9.96976 26.7824 
25.3478 -9.43488 27.0482 
25.6797 -8.12929 26.9157 
26.607 -3.69289 27.1796 
27.4798 -0.356257 26.8801 
26.4105 -3.17923 27.5693 
26.2888 -1.12692 28.5788 
25.6513 1.73101 31.1726 
25.6492 1.85509 31.7396 
24.1526 1.45766 32.6422 
27.0329 0.221037 0.818261 
26.9549 2.48795 4.56139 
26.904 4.03809 4.36961 
24.1676 0.444606 8.54487 
24.314 -0.0211088 10.5946 
24.3467 -0.186681 13.5767 
25.8093 0.143686 15.7126 
24.4214 -0.541078 17.9152 
27.1926 2.14469 18.0067 
25.8715 -0.0747412 18.6071 
24.5634 -0.561408 19.238 
27.2015 1.41301 19.3744 
25.9892 -6.42008 23.9677 
26.5039 -3.77425 24.1307 
27.2793 1.58752 24.0065 
26.0389 -6.60689 24.5586 
26.7193 -4.70367 24.9932 
27.4162 -0.190955 25.5072 
25.6884 -8.54121 26.3798 
25.0595 -10.7624 27.0358 
25.6538 -8.21322 26.9163 
26.0124 -6.08579 27.2137 
24.1758 1.38994 30.0541 
25.8044 1.09258 29.6952 
27.639 1.23879 0.419481 
27.7377 0.379858 3.12096 
21.2355 1.02438 3.79591 
27.5862 0.986254 3.65668 
27.5111 2.30778 3.96831 
27.3739 4.38724 4.01764 
26.2608 0.78403 13.621 
24.7546 -0.0321989 14.2357 
24.8079 -0.0593584 15.2077 
25.0058 -0.600806 21.3226 
26.0871 -4.96118 23.6808 
26.1316 -5.9366 24.1391 
26.7868 -2.19678 24.4159 
26.7397 -1.5998 24.0783 
26.3701 -6.18116 24.732 
25.2899 -10.262 25.8362 
26.4051 -6.25126 25.4516 
26.9381 -3.14064 25.4599 
25.3319 -10.798 26.2246 
25.5765 -8.80762 26.4759 
26.4372 -6.04362 26.2649 
27.0458 -2.47164 26.1023 
25.0412 -10.123 27.1229 
25.3117 -10.2337 26.8306 
25.9327 -7.95306 26.603 
26.2465 -6.02214 26.9564 
26.1702 -5.11308 27.3735 
26.8437 -2.36971 27.7416 
25.4106 -1.89738 28.0871 
26.7657 -1.71511 28.0733 
26.6397 -0.79829 28.6225 
23.2939 1.07905 31.8556 
23.3747 -0.355426 0.369681 
27.6484 1.10582 0.993069 
27.7996 0.443497 3.1235 
27.5136 4.09451 3.77227 
27.6593 5.09704 3.88605 
27.3934 6.12571 3.94894 
23.2224 0.414237 7.48755 
26.3082 0.885573 12.4088 
26.3406 0.814077 15.9823 
26.3494 0.603266 17.1991 
26.4168 0.207705 18.5994 
26.4139 -0.254741 22.7633 
26.1746 -3.87051 23.6242 
26.3186 -4.99083 24.4622 
26.2979 -4.5554 24.1945 
26.7738 -1.51047 24.2094 
26.8526 -0.936557 24.1837 
26.4289 -5.25305 24.9769 
25.3281 -10.1332 25.8489 
26.4776 -5.49836 25.6207 
27.0262 -2.65412 25.4817 
25.5892 -8.71244 26.3196 
26.079 -7.3884 26.2091 
26.474 -5.85686 26.3736 
27.0188 -2.48629 26.2021 
25.5632 -6.66073 26.9585 
26.4575 -5.36977 26.9273 
27.089 -2.55423 26.9445 
25.5643 -3.01557 27.5007 
26.8114 -1.62346 28.0858 
26.6676 -0.387638 28.6505 
26.3497 1.52171 29.3725 
26.3053 1.6068 29.8018 
26.4865 -0.590254 3.18289 
27.568 5.01568 3.91389 
23.1423 0.415898 5.37716 
23.2417 0.273701 13.2036 
23.2522 0.308019 15.2213 
26.3473 0.836058 16.0034 
26.375 0.6245 17.267 
26.4509 0.209652 18.6291 
26.49 -0.162809 22.7643 
26.8039 -1.0348 24.0261 
26.0085 -7.20892 25.0655 
26.4166 -5.30549 25.0012 
26.9352 -2.3922 24.8405 
24.8578 -11.6692 26.4403 
26.4924 -5.76348 26.428 
25.0371 -9.57478 27.1624 
25.5192 -8.55916 26.9059 
25.7153 -6.79341 27.0197 
27.0546 -2.61526 27.0008 
25.7182 -3.06011 27.5529 
26.8343 -1.57763 28.092 
23.641 0.242939 0.645468 
22.0784 -0.334838 0.808137 
28.4477 0.506112 1.16442 
28.1608 5.73487 1.62838 
28.1067 5.9814 2.65531 
24.1845 -0.846535 3.59722 
26.7393 2.02376 5.36416 
25.5103 0.493287 5.77566 
26.7301 2.10531 6.31361 
25.522 0.505992 7.78257 
24.0066 0.315715 8.51244 
26.9156 0.916139 8.44941 
25.5447 0.498712 11.0475 
26.843 0.98426 11.0144 
26.8079 1.40598 12.1664 
26.8079 1.35637 13.5674 
26.8494 1.48034 14.2481 
26.8159 1.03928 15.256 
27.07 2.59895 15.3397 
26.8232 1.12917 16.458 
25.6561 0.139399 17.2529 
26.8543 0.853694 16.9771 
26.8785 0.853347 17.7572 
25.743 -0.134484 18.6286 
26.8972 1.01901 18.5918 
24.3266 -0.783712 20.8032 
26.9759 0.956838 21.2875 
26.8866 0.407231 22.0963 
26.9797 0.897896 22.707 
25.9789 -6.1679 23.5922 
26.057 -2.2963 23.502 
26.9957 0.724075 23.3185 
26.0903 -6.10911 24.0745 
26.5168 -3.87383 24.2042 
27.0035 0.469683 24.0488 
26.2013 -6.62275 24.8126 
27.1192 -1.03932 24.9109 
27.1958 -0.34501 24.6742 
26.7393 -4.8093 25.5737 
25.5168 -9.47655 26.2849 
25.7677 -8.21048 26.2182 
26.2346 -6.82827 26.2841 
27.3561 -1.53988 26.1908 
25.0134 -11.4401 26.7312 
25.2264 -10.7956 26.7816 
26.7111 -4.66878 26.7367 
26.5617 -4.03744 27.1485 
27.2948 -1.20828 27.2198 
26.4171 -3.20785 27.5447 
26.3151 -2.47817 27.9708 
26.079 -1.19149 28.5513 
26.9617 1.03106 28.2399 
25.6216 0.967099 29.7025 
25.5041 1.18375 30.5024 
23.2619 -0.165845 0.391761 
28.1282 0.94518 3.25171 
27.7996 3.29967 3.78395 
26.5843 0.772219 5.32913 
26.5667 0.994132 6.14571 
23.2419 0.409309 7.24797 
26.6843 0.935458 7.21434 
23.4034 0.29033 9.99825 
23.4063 0.226072 11.7248 
25.4359 0.221048 12.7791 
26.781 0.820669 14.4929 
25.3977 0.122432 14.9907 
26.8101 0.988568 15.234 
26.8725 0.791092 17.0952 
26.8859 0.99526 18.5599 
26.9244 0.787411 19.9524 
25.9884 -0.934945 23.0055 
27.0244 0.667264 23.5961 
27.152 0.761134 24.2196 
26.6832 -3.97116 24.8653 
27.2409 -0.327213 24.8219 
26.3444 -6.55056 25.5235 
25.9718 -7.95969 26.2499 
26.7728 -4.48667 26.0888 
27.419 -1.02392 26.2678 
25.6697 -7.47528 27.0559 
26.1864 -5.99516 27.0231 
26.6763 -3.73643 26.9001 
27.3757 -1.08685 26.8669 
26.1377 -5.30345 27.3562 
26.7204 -3.15637 27.3493 
27.3392 -0.403019 27.3295 
26.3471 -2.1262 28.1518 
25.5738 0.351889 28.7935 
25.3662 1.94597 32.5027 
28.1562 0.92065 3.16982 
26.7177 0.195551 3.89471 
27.8808 3.38363 3.70243 
24.9521 0.408408 6.57646 
23.2796 0.38955 7.15104 
24.9722 0.508282 8.21371 
25.013 0.451786 9.36365 
25.1089 0.254723 11.0586 
26.7837 0.613691 10.9557 
25.3235 0.383919 11.8446 
26.748 0.996794 11.6188 
25.3506 0.211432 12.7683 
23.9223 -0.354279 13.6359 
26.8062 1.13064 16.3997 
25.6096 -0.207695 18.7003 
25.9628 -1.04592 23.0119 
26.1692 -2.17211 23.6359 
26.6207 -3.63341 24.3698 
27.1026 0.77103 24.1304 
26.8135 -4.4789 25.5839 
27.3408 -0.439355 25.5647 
26.8012 -4.38965 26.0087 
26.7956 -4.07717 26.2027 
25.1393 -11.0201 26.9725 
25.9178 -7.78223 26.7458 
26.204 -5.93254 27.0211 
27.3954 -0.997886 26.8825 
26.4886 -2.92264 27.6774 
26.6782 -3.25829 27.3398 
25.6975 0.180367 28.7716 
25.5452 1.22145 30.3834 
25.3891 2.0188 32.5583 
22.6489 -0.293006 0.414365 
27.7657 0.915129 1.65829 
26.3027 0.799503 13.0246 
26.1825 0.610518 13.852 
22.8 0.935186 13.8114 
26.4621 0.552433 19.2103 
26.4823 0.470877 20.0019 
25.4228 -0.315719 20.8352 
26.9412 -0.544188 24.1664 
26.5351 -4.69724 24.7096 
25.5695 -7.37346 25.4448 
27.1744 -1.8151 25.5515 
25.5005 -9.2936 26.2147 
26.2882 -6.69548 26.2223 
26.6766 -5.12309 26.1032 
27.1624 -2.24736 26.3149 
25.0993 -11.0797 27.0086 
25.4194 -9.24483 26.8299 
25.381 -8.83142 26.9846 
26.574 -4.35337 27.0168 
27.1958 -1.28499 27.0781 
25.9439 -5.80597 27.3879 
26.4256 -3.80306 27.3689 
26.3514 -2.97773 27.7174 
27.1929 -1.59521 27.3604 
27.1751 -1.12326 27.786 
25.7265 -1.94304 28.1492 
26.8488 -0.903283 28.4128 
26.8046 2.87012 28.4099 
26.4623 1.65463 29.1972 
26.4482 2.16747 29.9143 
25.0388 1.49257 31.9723 
22.6758 -0.267389 0.365057 
26.2287 -0.370095 0.375913 
27.5948 2.01184 3.8789 
27.555 3.05811 3.97043 
27.3671 4.04138 3.96179 
20.8888 4.82205 4.09727 
26.1612 0.440082 4.37591 
24.57 0.616377 8.86643 
26.221 0.498237 8.54449 
26.2563 0.889073 12.3953 
24.7993 0.145772 12.7497 
26.2889 0.802715 13.0918 
26.2553 0.634233 13.9176 
24.9293 0.0221135 15.5938 
26.4015 0.472177 15.5034 
25.0425 -0.175443 18.036 
23.4047 0.0517941 20.0398 
25.1395 -0.295605 20.3827 
25.3177 -0.359548 20.8531 
25.3342 -0.394594 21.368 
23.4119 0.138741 21.146 
25.324 -0.465468 22.1286 
26.4242 -4.02229 24.1494 
26.8934 -0.606936 24.1023 
26.1886 -6.66073 24.8292 
26.6633 -4.8047 24.9855 
27.0557 -1.26189 24.8576 
25.356 -10.4098 26.3207 
27.2133 -2.16609 26.3415 
25.4423 -9.18856 26.7544 
25.3544 -8.86402 27.0268 
27.1872 -1.65634 27.3546 
27.1463 -1.23822 27.7766 
25.8131 -1.92223 28.1789 
26.9534 -0.95578 28.308 
25.0625 1.20237 31.1409 
27.5857 1.2373 3.56283 
27.2076 2.61745 4.06505 
27.0291 3.82405 4.30753 
26.1617 0.476337 9.33071 
26.1078 0.780301 9.95425 
26.0687 0.728739 10.7744 
26.1615 0.650273 11.6645 
24.7117 -0.0567439 14.1709 
26.2942 0.591145 16.5922 
24.9518 -0.250954 18.0364 
24.9432 -0.178485 18.5931 
26.4483 0.197104 22.0675 
25.9695 -6.39116 23.978 
26.8068 -1.45259 24.3279 
26.7807 -1.11844 23.9645 
27.0343 -2.39152 25.5146 
25.3468 -10.6638 26.183 
25.8286 -8.20021 26.3261 
25.0883 -10.0373 27.2047 
26.5563 -4.56524 27.0073 
27.1007 -2.60688 26.9625 
25.7995 -5.989 27.3449 
26.3703 -3.92348 27.3525 
26.1403 -3.00868 27.7291 
27.0838 -1.91979 27.4571 
26.6766 -0.422732 28.6391 
26.2927 1.28928 29.2482 
26.2871 1.56425 29.8067 
26.0149 2.59304 30.429 
24.933 1.13368 31.2198 
24.6893 1.57814 32.9936 
25.5297 -0.804184 2.88381 
26.9149 -0.180522 3.74818 
26.364 0.322922 4.11146 
27.4584 4.37276 3.80234 
23.1538 0.343568 4.36514 
26.2959 0.603909 5.18333 
26.5085 0.748614 7.14758 
23.2255 0.40164 8.20624 
24.8452 0.199028 11.6142 
26.3908 0.857829 13.6082 
24.9981 0.0565291 15.804 
26.4898 0.526378 19.1984 
25.332 -0.213337 19.9698 
26.4635 0.452308 19.9818 
26.8751 -0.644688 23.9752 
26.6665 -4.55867 24.8337 
25.3153 -10.9428 26.2376 
27.1955 -2.19754 26.353 
25.3426 -9.46325 26.9855 
25.9376 -7.45001 26.8015 
26.2496 -6.51673 26.8237 
27.1157 -1.70168 26.9383 
25.9834 -5.74772 27.3798 
27.1075 -1.78568 27.5158 
26.9722 -1.08972 28.2397 
26.5389 0.526933 28.7119 
23.603 -0.796032 3.23636 
25.3301 -0.508489 3.73161 
26.4669 0.424041 4.12982 
27.8342 2.01472 3.88523 
27.5007 4.36553 3.69469 
27.5003 5.10405 4.00323 
24.9036 0.404126 4.74906 
23.1631 0.403023 5.18394 
26.4098 0.65166 5.13168 
26.4443 0.619575 8.21257 
23.2896 0.30114 11.8209 
24.9236 0.210541 11.6429 
24.9795 0.11159 12.4107 
26.4282 0.87052 13.683 
25.0204 0.0812306 15.2575 
25.6402 -1.61942 23.0674 
26.8439 -0.816894 24.2163 
26.6676 -4.47665 24.7831 
26.0031 -5.71859 27.3758 
22.8933 -0.36241 1.65385 
26.3458 -0.351262 3.72306 
26.404 0.242523 4.07189 
27.2644 3.22328 4.11801 
24.4128 0.517978 7.18036 
26.1276 0.581654 7.49713 
26.0874 0.81356 10.0609 
26.1487 0.625626 13.6935 
26.2274 0.378839 15.6867 
24.797 -0.192635 16.4114 
27.2594 2.56425 17.2215 
27.3005 2.38068 17.9878 
27.1778 2.57529 18.4617 
26.1355 -0.107272 19.4354 
27.2081 2.71318 18.987 
27.326 2.0798 20.3826 
27.3029 2.16135 20.9048 
27.2913 2.18795 21.4396 
27.2136 2.49119 22.7596 
26.016 -6.31728 23.7422 
26.688 -1.10987 23.7548 
27.3063 2.00255 23.5798 
27.354 1.74693 24.131 
27.3772 1.25057 24.8628 
27.3984 1.50806 24.6624 
26.6616 -5.19244 25.6576 
27.0214 -2.59658 25.4525 
27.4719 1.10593 25.6712 
26.6699 -5.2167 26.3008 
27.4628 1.1242 26.1411 
25.0569 -9.67411 27.2185 
25.8282 -7.99387 26.8813 
27.4282 1.25053 26.8419 
26.0716 -3.21855 27.6216 
25.4224 -2.3282 27.8336 
27.1135 2.70377 27.5567 
26.3367 -1.26852 28.4541 
26.8891 3.10437 28.2473 
26.3067 0.462235 28.8139 
22.6964 -0.431216 1.26679 
27.7772 0.991773 1.83627 
25.532 -0.792826 2.71195 
22.9051 -0.916633 3.34441 
27.222 2.40214 4.09218 
28.042 5.34623 3.73135 
24.635 0.399886 5.41707 
26.7403 3.28017 5.03411 
26.6404 3.29882 6.0552 
27.0918 1.49 8.83646 
27.1703 0.852959 10.2519 
26.9424 1.02028 10.9848 
25.4109 0.320662 13.6638 
26.7664 0.893517 15.0924 
25.3879 0.0859807 17.2769 
25.3878 -0.0807673 17.9501 
27.1313 3.87589 18.4642 
27.3839 2.60915 19.5481 
26.4072 0.358374 20.0428 
27.092 3.55821 19.7555 
27.2033 2.93255 20.5441 
27.2837 2.32857 21.339 
27.1799 2.4659 22.7867 
26.0413 -5.09544 23.6863 
26.7954 -1.04753 24.0536 
25.6665 -6.94626 24.5969 
26.4113 -6.17497 24.7537 
27.3548 1.19269 24.7952 
25.3597 -9.99142 25.8582 
26.3792 -6.45114 25.6664 
26.3791 -6.18164 25.3335 
27.4261 0.959859 25.5834 
27.498 0.186778 26.2146 
25.84 -8.01072 26.8479 
25.9241 -7.50492 26.7635 
27.4573 0.128436 26.8706 
26.3023 -3.8465 27.4064 
27.3502 0.183135 27.587 
26.3002 -1.57835 28.3833 
26.7107 2.28583 28.2915 
25.4869 1.0032 29.1915 
26.5315 2.67148 29.0672 
25.0007 1.47747 32.0491 
22.7635 -0.387343 1.2889 
27.8096 1.04449 1.91191 
21.4448 -0.188456 2.5683 
27.7774 0.84978 3.6041 
27.5617 1.61495 3.7891 
27.2293 2.29449 4.10575 
26.9615 3.06932 4.22871 
24.5889 0.399159 5.47341 
26.0065 0.600088 7.29732 
24.2679 0.500414 8.23424 
25.6587 0.621808 9.94977 
25.5985 0.28375 12.4214 
25.4475 0.189727 14.5528 
27.1455 3.7886 18.4892 
26.41 0.165061 21.4498 
25.1341 -0.615129 22.1209 
26.3989 -0.116781 22.2148 
25.1084 -0.600148 22.5658 
27.1631 2.45326 22.8002 
25.9827 -2.46322 23.5762 
25.9601 -7.2156 24.9895 
26.971 -2.17579 24.8569 
26.4102 -6.36507 25.6932 
26.7635 -4.74984 25.6226 
25.6354 -8.33634 26.1754 
25.3598 -9.99697 26.8745 
25.8185 -7.42618 27.0284 
25.0353 -1.57882 27.845 
27.3611 0.223909 27.546 
25.4633 0.970452 29.1264 
25.3979 1.00635 29.7806 
23.246 1.75834 30.1678 
23.4479 0.968933 31.7767 
24.9817 1.46993 32.0875 
25.4365 -0.766189 2.53245 
23.5761 -0.766137 3.34216 
27.956 5.23361 3.17573 
20.9306 3.06469 4.06847 
27.5876 5.86572 3.97912 
26.7352 3.19028 4.98087 
23.4059 0.413643 6.01476 
26.6346 3.23641 5.97555 
27.0029 1.13762 8.59811 
25.6198 0.51671 9.60305 
27.0508 0.953637 10.9354 
26.7913 1.45176 12.7476 
26.8047 0.875731 14.5081 
26.7045 1.13478 16.3137 
24.0429 -0.58754 16.9732 
26.6902 0.353248 18.9364 
26.5283 0.71214 19.3002 
23.4121 0.10029 20.5128 
26.4639 0.400766 20.5436 
27.2072 3.12497 20.6581 
27.3703 2.55811 21.5467 
26.4959 0.149117 22.4898 
26.0216 -6.09039 23.657 
27.2632 2.5296 23.1103 
27.317 2.19329 23.6807 
26.205 -6.02895 24.1323 
26.279 -5.29263 24.2569 
26.6243 -3.74152 24.4301 
27.3606 1.81156 24.1787 
26.3776 -5.86568 24.834 
27.038 -1.82382 25.0585 
27.4156 1.50788 24.7108 
26.396 -5.98671 25.4461 
27.0799 -2.33651 25.6841 
27.4408 1.11177 25.5074 
24.9988 -10.2285 27.2127 
25.4202 -9.91693 26.831 
25.08 -9.59242 27.2473 
25.3464 -9.68774 27.0574 
25.9365 -7.31866 26.8028 
25.7465 -6.8692 27.0875 
27.419 1.09944 26.867 
27.2885 1.28743 27.5682 
26.7835 -1.5317 28.17 
26.8062 2.39823 28.1905 
26.7622 3.20337 28.4456 
26.3329 -0.682583 28.7126 
23.6098 1.09159 31.2057 
24.8126 1.80247 33.0406 
25.3974 -0.75575 2.4401 
25.169 -0.596737 3.30297 
27.9512 5.25327 3.20622 
27.1757 1.86 4.04646 
26.9356 2.64323 4.36798 
23.6365 0.313472 5.00342 
25.9541 0.622976 6.79767 
24.1798 0.456828 8.97794 
27.0466 1.24837 8.67247 
24.2133 0.0223401 10.3168 
27.1847 0.82087 10.1859 
23.2089 0.416957 11.0736 
25.6338 0.603546 10.5728 
25.5572 0.602432 11.3555 
26.7984 1.4518 11.9799 
24.1536 -0.388705 14.3324 
26.6796 0.451559 18.3873 
25.3706 -0.371818 19.4069 
25.268 -0.198925 19.8888 
27.2092 3.22118 20.7151 
26.5324 -0.168985 22.9631 
26.5599 -0.310034 23.4496 
26.2658 -5.39323 24.1884 
26.7754 -0.985874 24.0565 
27.3638 1.84388 24.2026 
26.3619 -5.76327 24.8583 
26.6829 -4.00339 24.897 
26.406 -5.93334 25.5033 
24.9992 -11.3916 26.2673 
25.5347 -9.88578 26.4124 
25.5055 -9.68014 26.0905 
26.3093 -6.60311 26.1843 
26.4555 -6.0334 26.1937 
25.1225 -10.6478 26.9947 
26.1895 -5.95149 26.9907 
26.7243 -4.52311 26.6688 
26.5558 -4.0994 26.9844 
26.9511 -2.17796 27.6236 
26.8539 2.45443 28.14 
25.4753 1.16227 30.3791 
23.5897 1.20799 31.8726 
28.4671 1.89818 0.829848 
28.2055 2.78394 0.927944 
22.7975 -0.408707 1.56318 
28.3309 2.07258 3.10494 
27.1794 3.03217 4.10421 
27.6272 3.78271 3.81083 
27.5316 4.51165 3.6068 
26.8066 1.66937 4.43057 
26.967 3.09085 4.55078 
26.7355 1.86542 5.24822 
26.7799 3.30494 5.24869 
24.101 0.431296 6.08756 
26.8379 1.27974 6.65274 
26.8293 3.33317 6.68989 
26.6359 1.76876 7.0839 
23.9943 0.375301 8.96559 
27.054 2.48024 8.47508 
26.8255 3.11735 8.76743 
25.5526 0.494846 9.62238 
26.8783 0.520961 10.2017 
26.9035 2.75967 9.95135 
26.8975 1.03868 11.0245 
26.8171 2.93915 10.6226 
26.807 1.18398 11.6611 
26.7987 2.90295 11.4484 
26.4859 1.18522 12.337 
26.9544 3.77387 11.9292 
26.9443 1.62738 12.8776 
26.9267 2.31783 13.3745 
26.9504 2.16091 14.1761 
26.9517 2.35027 15.2002 
26.6454 1.02662 15.5657 
26.6563 0.949576 16.5252 
27.026 1.86017 16.5439 
27.0978 1.82072 16.988 
26.9906 1.08829 17.7544 
27.0361 1.40067 18.8373 
26.5298 0.811714 19.248 
26.9586 1.20779 19.3674 
27.0453 0.849096 20.0368 
27.0126 0.991726 20.5894 
27.2478 3.28821 20.845 
26.9923 1.12343 21.2559 
27.352 3.04906 21.6001 
27.1307 0.766064 22.1103 
27.3706 2.66586 22.1335 
27.346 2.93075 22.6775 
26.1335 -1.81346 23.4599 
27.3295 2.88715 23.4555 
26.2708 -5.16577 24.2489 
26.2947 -4.68122 24.1069 
26.5179 -2.94515 24.0397 
26.6318 -3.21776 24.4659 
27.1008 0.388885 24.2731 
27.3301 2.78509 24.2303 
26.7227 -3.764 24.8882 
27.2853 0.0007265 24.9738 
27.4679 2.23988 24.789 
27.158 -1.76663 25.4962 
27.3474 -0.32204 25.6151 
27.4485 2.21306 25.5155 
26.8358 -3.90472 26.1612 
27.2897 -1.78633 25.9103 
27.3283 -1.69648 26.2457 
27.4265 -0.281741 26.2514 
27.544 1.79033 26.2506 
25.8118 -6.63554 27.1701 
26.1779 -6.69408 26.7616 
27.2053 -1.7887 26.8126 
27.4392 -0.519912 26.8987 
27.4734 1.9721 26.7197 
27.1774 2.92448 27.2156 
27.1346 -1.63089 27.6269 
27.2158 -0.101156 27.7686 
26.8562 3.95649 27.7652 
26.8951 0.991038 28.3788 
26.9223 3.66428 28.2715 
26.0002 1.22934 29.7376 
25.8857 1.42181 30.4148 
25.6367 1.89302 31.8846 
24.1138 1.34023 32.6089 
28.1056 5.80964 2.59213 
27.4581 0.214244 3.80108 
27.1368 2.93661 4.09731 
27.547 4.58472 3.56285 
26.819 1.59998 4.34526 
26.9697 3.10161 4.71181 
26.7337 1.78625 5.19025 
26.8035 3.38475 5.39591 
23.9417 0.408851 7.07291 
23.9719 0.268302 8.16311 
26.9571 0.411749 9.42617 
25.4201 0.409319 12.0492 
26.5349 1.28324 12.3953 
27.0294 1.71575 12.9601 
26.6605 1.19757 13.3894 
26.9123 2.26737 15.1537 
26.6576 0.855937 16.6525 
27.0672 1.70798 17.0164 
27.0433 1.21587 17.7542 
27.057 1.16145 18.4174 
27.2223 3.79827 18.524 
27.0085 1.23906 19.3989 
26.5666 0.605107 20.0562 
27.0179 1.12564 20.5324 
24.0976 -0.870345 21.1674 
27.0031 1.18679 21.2496 
26.0586 -6.39375 23.9923 
25.9858 -6.2384 24.1345 
26.2512 -6.80091 25.6046 
26.2613 -6.85055 26.1893 
25.8367 -6.49976 27.1945 
27.2501 -1.83221 26.7497 
27.141 -1.5942 27.6574 
25.7462 -1.83077 28.2232 
26.8618 0.971026 28.4483 
24.2128 1.12792 30.9915 
27.0514 3.1833 4.49382 
26.7211 4.32841 6.28875 
24.7882 0.536743 6.83342 
26.1549 0.621175 6.7215 
26.9391 3.51255 8.02877 
24.5638 0.710357 8.56651 
26.8943 3.57162 8.87448 
26.8133 3.75219 9.58597 
26.806 3.65487 10.908 
26.9592 3.04571 12.5252 
24.7913 0.096605 13.0152 
26.9203 3.10124 13.2143 
24.785 0.0725128 14.4187 
26.9827 2.83306 14.0958 
26.9862 2.69473 15.5096 
27.0274 2.50351 16.2497 
27.1105 1.87617 17.0582 
27.199 1.8826 17.683 
27.1192 1.59174 18.6054 
26.2178 -0.110393 19.4568 
27.2367 1.59939 19.9966 
27.2354 1.55938 20.664 
27.2027 1.6328 21.3824 
27.0804 1.82145 22.03 
27.0728 1.77667 22.78 
25.9636 -3.14013 23.5331 
26.4761 -0.451874 23.4059 
27.2082 1.65407 23.5098 
26.1624 -5.9752 24.3167 
27.1798 0.886942 24.0603 
27.007 -1.94958 24.9504 
27.3968 0.378487 25.0545 
27.2937 0.947401 24.5698 
27.5058 0.220065 25.5251 
27.4847 0.225789 26.1874 
26.057 -6.84953 26.86 
26.2833 -5.84568 26.8928 
26.687 -4.38125 26.6946 
27.4409 0.245535 26.9839 
26.121 -5.43817 27.3376 
26.3389 -3.7463 27.3914 
26.9566 -2.20071 27.5739 
27.0144 -1.83411 27.7886 
27.2837 0.997768 27.6433 
26.5104 2.92618 28.875 
25.4109 1.29608 31.011 
23.6175 1.23992 31.8414 
28.4328 0.572952 1.27874 
28.2156 1.23518 1.51233 
24.0799 -0.77314 3.31639 
27.0088 -0.364203 3.17443 
28.2232 0.992667 3.08104 
23.9621 0.123214 4.33344 
26.7331 1.30259 4.41203 
26.6759 1.33221 5.53077 
23.4612 0.406196 7.17266 
26.7395 1.04427 7.23096 
27.0039 0.446343 9.30668 
23.9415 0.1344 9.97444 
26.7611 1.22997 11.6586 
26.7788 1.0705 14.2805 
26.8623 0.910907 15.1074 
25.4966 0.218422 16.3901 
26.7747 1.00895 16.6818 
26.9182 0.889511 17.2461 
24.2599 -0.601659 17.7115 
26.9991 1.12648 18.3953 
24.6026 -0.716143 20.5766 
27.0521 0.93466 20.6542 
25.9139 -0.072 21.303 
27.0784 0.876969 22.1047 
24.8728 -0.944039 22.5897 
25.9977 -5.10041 23.6598 
26.0007 -3.08128 23.6215 
26.347 -0.892408 23.4005 
27.0855 0.824705 23.4788 
25.7911 -6.52834 24.1192 
26.2841 -5.41997 24.192 
26.749 -1.64519 24.1869 
26.1705 -6.82755 24.8876 
26.3834 -5.35857 24.9314 
26.4229 -5.71906 25.491 
26.7993 -3.99314 25.3339 
27.4793 0.112597 25.5139 
26.7885 -4.36448 26.0516 
27.0789 -2.35984 26.1395 
27.4702 0.119074 26.0555 
26.3711 -5.42667 26.9959 
26.5712 -3.97541 26.9858 
26.4398 -3.75973 27.3487 
26.1219 -2.58938 27.9006 
26.9814 -2.17741 27.5005 
26.9867 -1.93793 27.8072 
27.3491 0.303834 27.6023 
26.7787 -1.19534 28.3163 
26.5326 2.59968 28.9881 
26.4335 2.80976 29.4676 
23.9504 1.07371 31.1375 
23.604 1.41295 32.4626 
28.4253 0.606372 1.3359 
28.2511 1.08495 3.07642 
23.6147 0.379833 7.14159 
27.0027 0.562256 9.96747 
27.0005 0.58143 10.7283 
24.1757 -0.160318 13.0277 
26.8014 1.16196 14.2769 
26.8466 1.16091 15.8012 
24.2601 -0.382324 16.3875 
26.8332 1.08546 16.6965 
25.7619 -0.127473 19.1728 
26.9477 1.13439 19.166 
24.5666 -0.515092 19.8565 
27.0315 0.948841 19.9738 
26.3884 -5.64814 24.7384 
26.3571 -5.43103 24.953 
26.6403 -4.01462 24.7367 
27.2891 0.299483 24.719 
26.8331 -4.37852 25.565 
26.7701 -4.08911 25.2869 
26.8078 -4.33833 25.9791 
27.463 0.0657169 25.9895 
25.1329 -10.5828 26.9713 
25.4168 -9.76437 26.9781 
26.3491 -5.44205 27.0092 
26.0253 -2.64499 27.8655 
26.7049 -1.26645 28.3286 
23.4383 1.72698 30.037 
25.4163 1.28396 31.7854 
25.2797 1.78601 32.5033 
22.5696 -0.345031 0.382358 
23.9797 0.284737 0.550275 
28.4118 1.67356 0.869264 
28.3664 1.85672 3.09652 
27.354 -0.0099314 3.74972 
28.244 2.22903 3.75457 
27.8016 3.82343 3.68872 
26.8166 2.39263 5.10063 
26.7549 2.206 6.19443 
26.8193 2.15229 7.19574 
27.1713 1.43336 9.61672 
27.0832 1.76702 10.1115 
26.864 2.65904 10.0863 
24.2188 0.145137 10.6864 
26.8133 2.68615 10.8933 
26.1714 0.483837 12.3448 
26.9142 2.59745 12.4294 
26.9789 2.50879 13.1847 
26.9351 2.50489 13.5562 
24.7698 0.0495816 14.3194 
26.9445 2.47549 14.2556 
27.0321 2.43877 15.105 
26.9813 2.83505 15.5754 
27.0099 2.83413 16.1849 
27.2246 2.48465 17.1012 
27.2087 2.67772 19.044 
27.2579 2.43857 19.9334 
27.3339 2.23285 19.7663 
27.2708 2.5852 21.2213 
27.345 2.73231 22.6673 
25.9464 -5.92367 23.5425 
26.7913 -0.0557837 23.4459 
26.3798 -4.64813 24.2129 
26.3767 -3.98817 24.1011 
26.6957 -2.32735 24.3035 
26.9362 -0.336114 24.1397 
27.332 2.97365 24.1178 
26.4011 -6.03066 24.8269 
26.8291 -2.90359 24.9922 
27.2233 -0.495627 24.847 
27.3462 3.03348 24.8512 
27.2548 -0.997388 25.5064 
27.2209 -0.6926 25.2297 
27.3613 3.09059 25.587 
26.8963 -2.9173 26.4225 
26.9808 -2.57444 26.0763 
27.6096 2.44423 26.2964 
26.0258 -7.11777 26.6989 
25.9973 -6.81805 26.9487 
26.955 -2.96855 26.9376 
27.4034 -0.943713 26.9816 
27.385 3.22697 27.0737 
26.3202 -3.72789 27.4136 
27.2097 -0.22828 27.7413 
26.9022 0.419834 28.2656 
26.4057 1.79179 29.5453 
26.3524 2.15966 29.9807 
25.0514 1.63225 32.6491 
28.3842 1.56125 0.888971 
22.6715 -0.532609 1.8248 
28.3841 1.74878 3.09231 
27.0587 0.805655 3.79552 
26.9726 1.55041 3.99909 
28.2779 2.16538 3.69661 
27.5493 5.05446 3.73861 
25.6644 0.607941 5.41144 
26.7799 2.25431 5.20031 
25.7081 0.61031 7.4024 
24.338 0.2353 11.3392 
26.9393 2.59843 13.647 
26.9415 2.63278 14.2953 
26.1658 0.632605 14.7851 
24.9182 -0.120691 16.6109 
27.2002 2.57511 18.5539 
27.2419 2.58723 20.0319 
27.2229 2.97321 20.6909 
27.2662 2.67837 21.1876 
27.3681 2.58822 21.9754 
25.9419 -5.78555 23.5438 
26.8213 -0.0415677 23.4791 
27.3249 2.89392 23.3939 
26.4365 -4.58916 24.3055 
26.7978 -2.54849 24.6765 
26.4233 -6.06565 25.5842 
26.9309 -2.68271 26.0584 
25.8145 -8.08772 26.7873 
27.4061 -0.925656 27.0146 
26.4795 1.58309 28.9698 
26.3045 2.15575 30.0139 
25.0253 1.57209 32.6857 
25.6758 0.608131 6.49779 
25.7289 0.625317 7.38886 
24.1553 0.405971 7.90815 
25.7706 0.586639 8.24158 
25.7913 0.621287 9.16341 
26.8345 2.58356 10.1875 
26.0975 0.583386 13.5917 
26.9414 2.64519 13.6925 
27.1985 2.42495 17.011 
27.2339 2.66157 20.0811 
23.4145 0.178548 22.5038 
26.6274 -2.42528 24.2192 
26.7668 -2.60792 24.6287 
27.1989 -0.626387 24.8289 
27.2533 -0.788747 25.6025 
26.1925 -3.69899 27.4783 
26.793 -2.41913 27.7294 
23.5146 0.984792 31.839 
27.6839 -0.126967 1.80154 
28.0664 4.96296 2.81723 
27.5718 1.17931 3.59703 
27.1009 1.60379 3.98761 
27.0086 3.01881 4.63224 
26.8029 3.42763 5.26327 
26.8446 3.76061 5.84165 
26.825 3.73117 6.82023 
26.9431 3.5269 7.96844 
26.7323 4.29879 8.12157 
26.7571 4.37575 8.92311 
26.6839 4.73035 9.48126 
26.7322 4.73188 10.2975 
24.9133 0.203268 10.8939 
26.4091 1.01266 12.8526 
24.9453 0.203328 13.5784 
26.7594 0.970561 15.2005 
25.4976 0.198157 16.3901 
24.3475 -0.582904 19.2358 
25.3559 -1.53227 22.9346 
26.415 -0.916827 23.5177 
26.3702 -0.500628 23.2711 
27.0914 1.03892 23.5392 
25.8331 -6.25929 24.2041 
26.4485 -3.13342 23.9679 
26.9769 -1.83139 24.9043 
27.3952 0.405613 25.1069 
27.3274 0.968138 24.7388 
26.0734 -7.52413 26.194 
26.8107 -3.9196 26.2422 
25.5638 -8.72596 26.7072 
26.001 -7.31951 26.6387 
26.6323 -5.27525 26.7117 
27.1941 -1.85866 26.8835 
27.3969 0.994979 26.8878 
26.2029 -4.694 27.3794 
27.3195 1.16748 27.3699 
26.734 -1.04499 28.4214 
26.7787 2.33392 28.1664 
26.1149 1.19502 29.3191 
25.5556 1.63226 31.1772 
24.1753 -0.571796 2.53327 
28.0185 0.655581 3.02588 
28.2255 5.8673 3.09244 
26.5524 0.741278 4.44133 
26.5677 0.802703 5.43576 
26.5621 0.893934 6.43343 
23.6482 0.287636 7.39917 
26.5476 0.834635 7.23306 
26.7267 0.562985 8.57747 
25.4136 0.428289 11.9995 
26.1883 0.133342 18.5822 
26.0094 -0.194092 20.0092 
27.138 1.00992 22.7983 
26.1048 -4.79724 23.6324 
26.6238 -3.31777 24.3691 
26.7487 -3.15487 24.794 
26.9432 -1.60816 24.7796 
27.3895 0.552473 24.9736 
26.5523 -5.30536 25.4381 
26.6568 -5.24642 25.6483 
27.4468 0.346934 25.3894 
27.3968 0.877308 25.621 
25.3828 -10.2255 26.1908 
26.8292 -3.73789 26.1939 
27.274 -1.95744 26.1154 
27.4996 0.488445 26.2713 
25.8027 -7.34187 27.0702 
26.6401 -5.24587 26.8054 
26.7758 -3.54707 26.8715 
27.2846 1.09943 27.5759 
26.8693 -1.21047 28.2362 
26.5373 3.00669 28.8346 
28.1843 1.10578 3.2796 
24.2685 -0.80478 3.60073 
27.5273 3.21849 3.97891 
27.0289 4.03892 4.32322 
26.6497 1.23105 5.2325 
26.6406 1.17016 5.87101 
27.0018 0.601769 10.7103 
24.25 -0.21886 13.5551 
26.9054 1.47356 13.8314 
26.8466 1.46324 14.4143 
26.8848 1.40751 15.1934 
25.74 0.240766 15.9196 
26.8936 1.43431 15.7504 
24.785 -0.224283 16.6289 
26.8881 1.24028 16.4149 
26.99 1.12476 17.3846 
27.0291 1.64232 16.9622 
27.1628 1.49289 20.7547 
27.1467 1.54791 21.3424 
27.1109 1.56909 22.0069 
27.1626 1.56747 23.3971 
26.4075 -4.62794 24.3106 
26.4443 -2.51401 24.0325 
27.2314 1.12854 24.05 
26.7278 -2.998 24.8037 
27.0414 -1.14053 24.7781 
27.3413 1.07603 24.8214 
27.1738 -1.63525 25.3997 
27.3013 -1.54943 25.6996 
25.4374 -9.56312 26.8778 
26.1751 -3.80189 27.4643 
26.7187 -3.03284 27.4228 
27.0527 2.45512 27.6261 
26.9924 -1.12705 28.1686 
26.7883 2.54646 28.2171 
26.3712 0.345265 28.8703 
25.9544 1.20724 29.7839 
25.6264 1.70085 31.2138 
25.5202 2.12303 32.454 
28.2335 0.885898 2.65536 
22.5511 -0.78911 3.41291 
27.1377 -0.223909 3.4055 
26.79 0.887585 4.06775 
27.4437 3.23816 4.01393 
23.6547 0.202309 4.43453 
25.376 0.428397 4.54641 
26.6367 1.18048 5.08337 
23.9801 0.298739 9.60064 
24.4378 -0.287011 14.9438 
26.0574 0.163405 15.6977 
25.9892 0.355462 16.6114 
26.9255 1.287 16.3884 
27.0129 1.19522 17.4242 
26.9884 1.52539 16.9142 
27.0291 1.18068 17.9539 
27.0408 1.22123 18.4993 
26.1931 0.270768 20.6125 
27.1107 1.22609 20.4519 
27.1265 1.45965 20.8 
24.9621 -0.373614 22.3728 
27.1211 1.48497 21.9993 
27.1078 1.57886 22.6952 
26.1783 -5.76205 24.1176 
27.2518 1.21038 24.0381 
26.5659 -4.59727 24.7052 
27.1911 -1.52265 25.3639 
26.2021 -7.07627 26.0885 
26.1968 -6.83412 26.4456 
26.8538 -3.00197 26.2369 
26.2868 -5.79124 26.9277 
27.2088 -1.31498 27.0623 
26.739 -2.92011 27.4643 
26.3814 -2.37605 27.9823 
27.0223 2.33079 27.6608 
27.054 -1.08534 28.1348 
26.7889 2.62051 28.2393 
23.7357 1.76323 29.5891 
23.6455 -0.129475 0.534539 
22.2546 -0.917491 2.65753 
23.6332 -0.195439 4.05937 
26.9411 0.415701 3.78906 
25.3053 0.431183 4.62113 
27.1594 3.2037 4.32314 
26.8816 3.83982 5.51159 
25.3384 0.400167 5.87721 
26.7736 3.96746 5.97242 
25.3342 0.416746 6.7434 
26.9886 3.51124 7.6616 
26.5851 0.988145 7.80172 
26.8595 3.69544 8.74876 
27.0061 0.385437 9.32307 
25.0444 0.262293 10.0866 
26.9309 3.50432 10.0918 
25.0396 0.288656 10.7937 
26.7816 3.74428 10.7423 
26.7521 3.80525 11.3339 
26.9125 3.25468 13.109 
26.8712 3.44427 13.6341 
26.9894 2.99018 14.2738 
26.9191 3.27711 14.9872 
26.5093 0.895766 15.7793 
26.9895 2.95784 15.6339 
27.0021 2.94557 16.2341 
27.1927 2.56388 18.6206 
26.4708 0.586723 19.411 
26.4933 0.816456 19.1431 
27.1989 2.58111 19.1417 
25.5456 -0.200782 20.5574 
27.2967 2.21071 20.7594 
27.3497 2.07664 21.265 
25.9703 -6.07807 23.6065 
26.226 -1.8041 23.6079 
26.8448 -0.035292 23.3763 
26.9278 0.347005 23.6253 
27.2699 2.33056 23.1059 
26.2432 -5.11773 24.1432 
26.7256 -1.8333 24.196 
26.9292 -0.184404 24.1267 
26.4127 -5.21404 24.7886 
27.1686 -0.605632 24.7495 
27.464 1.54127 24.8279 
26.8108 -3.96516 25.3456 
27.24 -0.76463 25.451 
27.3449 -1.15098 25.736 
27.4553 1.6398 25.5775 
26.7683 -3.97245 26.3225 
26.182 -6.54277 26.8422 
26.4041 -5.40016 27.0179 
26.5712 -3.90553 27.0513 
27.3858 -1.00945 27.0219 
27.2095 2.05892 27.1801 
26.837 -2.4473 27.6581 
27.2184 -1.04722 27.6667 
27.1305 -0.947295 28.0946 
26.8142 2.69002 28.2357 
26.4545 0.316934 28.8029 
26.5637 3.2283 28.8457 
25.4352 1.90683 32.3311 
28.2296 1.43594 1.04111 
27.0297 0.344091 1.62011 
28.2749 1.06839 2.94831 
27.8792 1.83113 3.85352 
26.9258 3.92658 4.42309 
23.3551 0.421803 6.23854 
25.306 0.375243 5.83029 
26.7382 4.07089 6.0378 
25.0408 0.489054 8.21455 
25.0046 0.629584 8.8847 
26.4461 1.14841 12.1936 
26.9562 3.2644 12.4171 
23.9617 -0.351519 13.8031 
23.9842 -0.377796 14.4413 
25.3335 0.255275 14.1607 
26.9928 3.06875 14.3628 
23.9781 -0.374939 15.0387 
26.9936 3.01924 15.6632 
23.9594 -0.437145 16.2753 
26.9983 3.0013 16.2587 
27.1599 2.63726 17.0133 
26.7075 0.392604 18.5087 
26.5055 0.606945 19.5015 
24.1329 -0.819653 20.8305 
27.1944 2.37446 22.1186 
26.2822 -1.71419 23.6727 
26.2282 -1.25621 23.3667 
26.8715 0.18006 23.6451 
27.1585 -0.598714 24.7231 
26.6342 -5.43555 26.3952 
27.3681 1.86673 26.7055 
27.2403 -0.967026 27.6522 
26.4887 0.317105 28.7735 
25.6144 1.779 31.6653 
26.8257 0.510804 1.00579 
28.2429 0.949061 2.98897 
28.0217 4.83585 3.09532 
27.7097 5.10962 3.72289 
26.8211 3.3633 5.13818 
26.5051 0.788337 6.13111 
26.441 0.614353 8.02414 
26.8514 3.0944 7.95557 
26.8081 3.0254 10.3946 
26.4533 0.61697 11.0346 
26.8075 2.90311 11.3504 
26.8969 3.06903 12.1838 
26.9603 2.56618 12.9982 
26.9064 2.6829 13.5419 
27.0371 2.42461 14.9952 
26.9655 2.51156 15.6357 
27.2157 1.8203 17.8062 
27.1686 1.673 18.5211 
26.3568 0.603172 19.2847 
27.1186 1.64406 22.0051 
26.8203 -0.284281 23.509 
26.386 -5.39937 24.7432 
26.8009 -2.60105 24.7157 
24.8294 10.3403 24.7221 
27.2341 -1.02785 25.3321 
27.3969 1.02035 25.5601 
26.0564 7.55049 25.4975 
26.7224 -4.50033 26.284 
26.8726 -2.9235 26.1627 
27.4635 0.931748 26.1905 
26.5615 -4.32024 26.9661 
27.4139 0.970802 26.8439 
26.9664 1.63607 28.0415 
26.7169 2.50174 28.4357 
26.5391 2.46412 29.0442 
26.3798 2.30553 29.8426 
23.5678 1.33137 32.3863 
22.8955 -0.289833 1.34041 
26.4254 0.429698 1.04005 
27.86 4.20569 1.66529 
28.08 3.58295 3.55488 
26.957 2.44058 4.32121 
26.7753 2.35535 5.08302 
26.7206 2.42869 5.96191 
24.2072 0.533948 6.87804 
26.7014 2.3591 6.50347 
27.0958 1.64184 8.59615 
27.174 1.49543 9.5447 
26.8614 2.03831 10.5101 
27.0211 1.69513 11.5256 
26.8747 1.64486 14.4148 
26.9031 1.51512 15.2596 
24.5797 -0.188553 15.8122 
26.9002 1.52295 15.8226 
26.0329 0.393474 16.4725 
27.0145 1.59134 17.092 
26.1504 0.180157 20.6254 
27.3492 3.63426 21.3847 
27.348 3.57406 22.136 
27.2348 3.77474 22.5955 
25.9956 -5.24214 23.652 
27.3576 3.12737 23.5007 
27.3066 3.57998 23.1094 
26.2847 -4.0204 23.9893 
26.4899 -3.00379 24.0926 
26.4007 -2.51971 23.9876 
27.1545 1.0458 24.1027 
27.34 3.19227 24.1017 
26.9803 -1.59714 24.8832 
27.3415 3.25769 24.8174 
26.9345 -3.28103 25.4702 
27.4198 -0.162796 25.7219 
25.3265 -10.3848 26.4134 
26.8376 -3.17518 26.1676 
27.5873 2.61968 26.1297 
27.5401 2.80911 26.426 
26.6135 6.21374 26.0227 
26.5295 6.36258 26.584 
26.6496 -4.65482 26.8359 
27.3683 3.19612 27.0003 
26.5848 6.18947 27.1237 
26.5896 4.71818 27.6067 
26.6402 5.56731 27.8241 
26.7738 5.70996 27.6182 
26.9118 3.84471 28.1457 
26.4443 1.58327 29.0159 
26.1715 5.50141 28.8037 
25.8 2.56846 30.8502 
27.8769 0.617665 3.31841 
27.4864 4.99292 3.9562 
26.9677 2.33926 4.29783 
26.2562 0.462947 5.41601 
26.7822 2.44044 4.99945 
26.687 2.486 6.59839 
26.1001 0.602604 9.55732 
24.3916 0.22183 10.853 
25.9706 0.725329 10.9451 
26.9286 1.64122 12.1565 
26.917 1.65416 13.58 
26.8845 1.70825 14.3872 
26.9883 1.51533 17.0805 
27.0636 1.1967 17.7665 
26.9549 1.34754 19.1856 
26.9879 1.23607 20.5425 
27.3741 3.24381 23.5567 
26.2047 -5.72562 24.1686 
26.3424 -2.53581 23.9253 
27.344 3.30158 24.0937 
27.2636 0.407841 24.6276 
25.3401 -10.5887 26.1785 
25.3034 -10.4413 26.4933 
25.5148 -9.64507 26.3048 
26.8259 -3.25908 26.1693 
25.2342 -10.4032 26.8628 
26.3885 -4.39094 27.1985 
27.4372 -0.0803887 26.8285 
27.36 3.18069 26.9636 
26.2953 -2.60886 27.9118 
28.1804 2.53339 1.69045 
27.7212 0.341922 2.70482 
26.8972 -0.361428 3.11881 
28.3235 2.11806 3.39753 
28.1951 2.32444 3.79837 
27.2848 4.06855 4.07609 
26.8235 4.99959 4.12643 
26.4653 5.90984 4.28968 
25.6853 0.613706 5.35154 
26.6747 1.81956 5.79064 
26.6683 1.7664 6.77161 
26.4342 5.30261 8.54935 
27.0588 0.976058 9.3219 
25.4995 0.610726 10.2044 
26.8757 0.860364 10.9857 
26.7966 4.47544 10.6513 
25.4795 0.605075 11.6098 
26.6824 4.64628 11.2608 
24.0092 0.144711 11.9942 
26.7717 4.40095 12.1575 
26.8201 4.24243 12.9553 
26.769 4.28942 13.5904 
26.7529 4.26652 14.2531 
24.1178 -0.370029 14.9498 
26.8105 4.09589 14.982 
26.8095 4.04585 15.6197 
27.0067 3.59826 16.44 
27.0011 3.56135 17.0259 
27.2264 3.06319 17.8001 
27.0958 3.14865 19.8455 
27.3124 2.39051 20.9425 
26.8866 0.2732 22.0437 
24.6988 -0.978555 22.5195 
26.0185 -0.922035 23.0373 
26.803 0.365957 22.812 
25.7518 -5.89442 23.395 
26.8668 0.279344 23.5507 
27.2364 2.42931 23.4444 
27.3229 2.30329 23.5145 
26.2384 -5.92175 24.2401 
27.0301 0.310757 24.1342 
27.3272 2.56641 24.2457 
26.395 -6.04785 24.8643 
26.6009 -5.00759 25.0525 
27.4994 1.8119 24.9211 
27.4052 -0.425956 26.1413 
27.3725 1.94733 26.824 
24.6826 12.1642 26.6265 
27.1242 -0.262586 27.8329 
23.3555 14.413 27.5819 
26.8058 0.359571 28.3704 
26.2492 0.990128 29.1779 
25.9727 1.37202 30.1425 
28.2182 2.84117 0.924089 
22.2394 -0.785525 1.82146 
28.1802 2.86602 2.09279 
28.2254 2.48892 3.6549 
26.8617 5.76408 4.11856 
26.2513 0.585018 6.39846 
26.6808 2.4936 6.69286 
24.7161 0.515074 7.18191 
26.1531 0.44891 12.49 
26.8907 1.63562 12.2537 
27.0271 1.54933 12.9573 
26.9208 1.63453 15.3091 
26.8998 1.6487 15.8654 
27.047 1.70726 16.5801 
26.066 0.367638 17.2288 
26.9995 1.20742 18.4949 
27.0062 1.2393 21.282 
27.3407 3.62713 22.1164 
27.1991 3.89376 22.7226 
27.2774 3.72864 23.5447 
26.3108 -2.35802 23.8904 
27.3488 3.56497 24.0377 
26.3804 -5.41512 24.78 
26.6507 -4.39099 24.8497 
