ply
format ascii 1.0
comment Created by CloudCompare v2.11.1 (Anoia)
comment Created 2026/6/3 下午10:22
obj_info Generated by CloudCompare!
element vertex 1917
property float x
property float y
property float z
end_header
30.419 2.20276 3.05727 
31.7523 1.31952 3.89619 
29.748 2.19825 3.97228 
26.4795 3.271 4.61437 
31.6191 -0.601189 5.32662 
26.4979 3.30332 5.26509 
31.5939 -0.589877 5.74115 
26.3774 3.33088 6.57454 
26.3256 3.37282 7.40169 
31.3314 1.59887 7.93841 
32.0626 1.71877 8.77433 
29.7305 2.48732 8.59272 
30.1827 2.44723 8.83291 
31.776 0.610586 9.76209 
28.5422 2.48078 10.7591 
28.2387 1.45662 17.7952 
29.2018 -0.915093 18.7163 
28.1019 1.56945 19.4059 
28.9828 0.518107 20.6141 
28.9554 -2.23787 21.1801 
29.0967 -1.97027 21.7758 
28.1906 0.550624 25.3895 
26.6274 3.12796 29.253 
33.0809 1.45517 0.389011 
29.5731 3.12376 0.34761 
28.2599 3.2225 2.41148 
29.9001 2.19432 3.41945 
29.6546 2.2047 4.69925 
31.5771 1.42593 5.19721 
29.6125 2.24417 5.26623 
26.4133 3.32688 5.89708 
26.4149 3.35616 6.55656 
29.2398 2.36558 7.82343 
26.4407 3.43644 8.0269 
32.3193 0.783448 8.68176 
30.3333 2.48889 9.17454 
30.9639 1.5762 10.823 
28.6185 2.44864 10.7753 
28.595 1.41559 15.5795 
29.1072 -0.795977 20.5968 
32.3914 -1.06721 0.612124 
30.1996 2.80238 0.450798 
31.8077 1.93651 1.17012 
29.7763 2.98283 1.01995 
26.5425 3.98384 0.962118 
31.8111 -2.30629 1.62911 
32.1669 -0.990419 1.88583 
32.9718 1.29412 2.40795 
31.4053 2.02651 2.62686 
29.1246 2.95216 2.47781 
29.4259 2.84864 2.18997 
26.0608 4.06149 2.24242 
29.0206 2.85964 2.85335 
30.2606 -4.39012 4.00196 
31.9123 1.28559 3.91477 
27.8007 2.88935 4.01484 
28.0362 2.84987 3.78075 
31.8716 1.25128 4.53626 
27.6599 2.88296 4.43575 
30.3539 1.91101 5.2641 
27.6435 2.95365 5.25054 
31.9764 1.14365 5.96713 
30.0374 2.01793 6.01619 
30.3195 1.92323 5.88824 
27.464 2.96182 5.92415 
30.0313 2.05536 7.31037 
27.5453 2.92941 7.40901 
31.9521 1.15496 7.8878 
30.0889 2.0909 7.82094 
30.228 2.12857 8.15655 
27.6283 3.00925 7.93662 
32.3989 1.54117 8.76853 
30.3315 2.32171 8.65227 
30.8593 2.22199 8.79634 
28.3 3.02809 8.63681 
30.9032 2.27464 9.1006 
28.3574 3.14694 9.32612 
31.3784 1.33127 10.7308 
29.2083 2.219 10.9274 
30.6477 1.10155 12.1902 
28.466 0.930544 13.6251 
28.9974 1.0704 14.3723 
29.2182 1.16127 15.0433 
29.1943 -1.17804 15.7802 
28.997 -0.300711 18.4069 
28.5133 1.27454 19.2383 
28.8767 1.23582 20.4576 
29.1367 0.446406 22.2201 
27.7814 2.66685 24.5766 
28.1633 0.410383 26.43 
30.6158 2.52296 0.429152 
29.5132 3.14875 0.463055 
29.1492 3.15838 0.962255 
26.5133 3.97243 1.11149 
28.7248 3.07528 1.84201 
26.3914 3.96843 1.81735 
31.8646 1.88513 2.46018 
32.9396 1.43147 2.27544 
30.4448 2.39994 2.49875 
28.4768 3.14811 2.50907 
26.1986 3.99979 2.37064 
28.26 2.96509 3.09782 
27.6852 2.91508 4.01494 
31.1982 -1.53594 4.69591 
29.668 2.21007 4.53501 
29.6432 2.21824 5.16528 
27.648 2.94153 5.18805 
29.692 2.16489 7.29051 
27.5354 2.92764 7.3802 
31.7285 1.60419 8.25679 
27.789 2.98807 8.03654 
27.4973 3.18604 9.63547 
28.4905 3.11784 9.2918 
27.4272 2.95297 10.1288 
27.4024 2.92135 10.7595 
30.6146 1.47152 11.4938 
30.0885 1.17022 12.5036 
29.3459 0.929585 13.2035 
27.6268 1.60594 16.5364 
28.9948 -0.423087 17.2208 
29.0894 -2.02172 21.8209 
28.9966 0.638678 22.7051 
26.4973 2.99464 29.5873 
26.7809 3.91795 0.590249 
29.2389 3.15787 0.941626 
31.7892 1.88084 1.80612 
32.8443 1.27235 2.67372 
26.2445 3.97922 2.41339 
31.2188 -1.47629 4.70488 
31.3344 -1.27865 4.3085 
27.5757 2.90979 4.5386 
29.6123 2.19503 5.92091 
30.3972 -3.39953 7.21447 
31.1705 1.57109 7.37866 
29.8189 2.24658 8.02122 
27.8425 2.98101 8.06984 
32.0068 -0.158897 9.33118 
29.5353 0.955048 13.7282 
29.0518 -0.39837 16.6423 
27.578 1.63332 16.6337 
28.5805 0.531298 17.2678 
29.1453 -0.444813 18.6475 
29.008 0.660884 22.5723 
28.263 1.76236 22.5951 
28.6156 1.81671 24.079 
32.1105 1.85751 0.53587 
27.4966 3.62217 0.569233 
31.3473 -3.76893 0.936756 
32.3291 -0.800661 1.2463 
32.4367 -0.604623 0.976299 
32.0413 1.86902 1.11434 
30.9819 2.27031 1.1635 
31.9507 1.82923 1.75652 
30.8922 2.26109 1.86954 
29.1095 2.95298 1.71979 
30.6585 2.31093 2.55461 
29.1439 2.94425 2.37693 
27.0934 3.65802 2.43483 
26.3122 3.6955 3.2245 
30.2762 2.00138 3.72006 
28.3435 2.72299 3.88416 
31.2002 1.51767 4.57382 
31.2718 1.53096 5.23524 
30.0054 2.02785 5.95937 
28.2553 2.66285 6.07938 
28.1894 2.65842 6.74411 
30.1904 2.02299 7.5552 
28.2148 2.66691 7.41086 
30.3409 2.01131 7.9374 
28.4581 2.72791 8.08052 
32.3077 1.62419 8.84411 
30.5044 2.25891 8.62734 
30.8957 2.23607 8.88633 
29.0039 2.85265 8.80886 
26.291 3.77682 8.68249 
26.9498 3.61155 8.72267 
32.3478 1.64041 9.24417 
29.1765 2.88405 9.2877 
27.1316 3.63421 9.32293 
31.393 1.3749 10.2324 
30.0097 1.99435 10.3203 
30.3495 1.90614 9.98663 
29.9967 1.9463 10.8701 
28.2281 2.606 10.7384 
29.5911 1.80887 11.4933 
27.5569 2.63705 11.5289 
28.911 0.338824 16.6178 
29.2244 -0.944646 17.2139 
28.5922 0.399121 17.3244 
28.5998 -2.74338 20.5849 
28.2304 1.48522 21.6003 
29.0643 0.496502 22.5281 
28.0413 3.42683 0.507101 
26.0553 4.21099 0.449564 
29.8791 2.91807 1.0709 
29.7389 2.71945 1.89782 
30.8465 2.27933 1.72724 
32.8101 1.48731 2.47041 
30.9107 2.23414 2.44486 
31.383 -2.65171 2.95798 
27.1181 3.24258 3.4395 
30.2441 2.00815 3.81164 
28.7952 2.54209 3.78204 
28.956 2.44419 5.8755 
31.4093 -0.609607 6.61598 
30.1939 1.91675 6.73099 
31.4091 1.46369 6.68259 
26.9164 3.16545 6.70969 
28.9108 2.42459 7.24783 
26.9944 3.15395 7.42646 
30.4958 2.00591 8.06167 
27.0819 3.2369 8.06346 
29.2223 2.66239 8.51924 
29.6273 2.60913 8.76835 
27.5816 3.38128 8.75272 
32.3106 1.67851 9.19099 
29.1326 2.52535 9.69387 
31.0048 2.22339 9.16681 
30.3618 1.89136 10.025 
28.9476 2.46338 10.2123 
30.3091 1.81575 10.8414 
30.6498 1.02181 12.2985 
28.2971 0.985315 13.0121 
28.275 0.946216 13.6239 
29.0747 1.22065 15.0513 
28.5565 1.17257 16.4313 
29.0366 -0.378751 19.4339 
28.7231 1.01024 19.3267 
27.6757 1.85972 19.0823 
27.5404 1.86074 19.8588 
27.6701 2.0568 20.4028 
28.0464 2.10164 20.7949 
29.1169 -1.81924 21.1136 
27.6899 1.96951 23.0393 
28.1833 2.101 23.3731 
28.281 2.19182 24.05 
28.2538 0.427057 25.6301 
30.9033 2.32745 0.949227 
29.547 2.74432 2.57899 
27.8232 3.37994 2.36501 
31.4068 -2.68846 2.8951 
30.3938 2.02656 3.37748 
31.4198 1.62885 3.35324 
30.7472 -3.38654 3.73218 
26.8468 3.20985 3.80523 
30.2231 1.96009 5.18018 
26.8196 3.19937 5.2182 
30.0682 -4.48497 6.83656 
28.6226 2.50123 6.59593 
31.9211 0.615001 7.46035 
30.3109 1.95479 7.37518 
31.9595 0.631944 7.85756 
31.1933 -2.19463 8.68225 
31.0239 2.16868 8.82436 
30.4686 -4.39696 9.38014 
30.6434 1.98188 9.59436 
31.0556 2.19777 9.19991 
27.741 3.33102 9.35154 
28.6149 2.43505 10.929 
28.4121 2.36003 11.5113 
28.2103 1.00152 13.0012 
28.1796 0.954051 13.6234 
29.1049 0.0894191 16.3534 
28.6255 1.13792 16.3767 
28.8839 -1.61838 18.3636 
28.5711 1.01122 18.6141 
27.5648 1.91376 19.0129 
29.1301 -1.73734 21.0601 
29.1042 -1.79415 21.7417 
28.3161 2.16503 23.9966 
28.2991 3.35735 0.426559 
30.3573 2.67595 1.01319 
28.3372 3.32116 0.972166 
26.9042 3.83375 0.887002 
32.0247 1.80182 1.8304 
28.34 3.20989 1.82531 
26.4073 3.96315 1.80614 
32.0737 1.79127 2.56267 
26.2262 3.81112 3.01633 
27.5042 2.98226 3.88806 
30.7456 -2.59049 4.72719 
29.0242 2.42944 4.60711 
31.8702 1.15316 5.17794 
29.0624 2.43201 5.32028 
27.5442 2.98826 5.31412 
31.7687 1.24011 5.9567 
29.0322 2.39638 5.98582 
27.4242 2.96276 6.03852 
31.7991 1.15802 6.66785 
30.4488 1.83182 6.6985 
29.1324 2.29763 6.62174 
30.5296 1.86494 7.42442 
29.0502 2.37955 7.3213 
31.3974 -0.987737 8.0069 
31.9839 1.05998 8.04421 
32.1418 1.59288 8.54292 
27.7754 3.22332 8.57372 
27.8415 3.20817 9.44348 
29.1428 2.36182 10.2507 
27.3596 2.93426 10.8276 
29.8916 1.53782 11.9434 
29.0184 0.929952 12.9671 
29.053 0.932959 13.6464 
29.1756 1.05534 14.2689 
29.5551 0.972658 14.7852 
27.4906 1.62 16.5613 
27.5976 1.65126 17.1357 
29.0507 -0.421536 19.4674 
27.7901 1.78812 21.4979 
28.209 0.409487 26.305 
27.1697 2.73481 26.786 
31.3224 2.06186 0.517192 
29.2145 3.20355 0.669604 
26.936 3.84294 0.507344 
32.5101 1.68835 1.16737 
26.9659 3.7951 0.877074 
32.4627 1.61904 2.47617 
26.963 3.70773 2.40851 
29.6926 2.39103 3.14158 
26.2916 3.72372 3.14216 
26.8311 3.62808 2.98571 
30.6473 1.75785 4.55221 
29.5968 2.24005 4.43675 
31.8989 1.2483 5.24558 
27.8359 2.88273 5.17792 
31.8837 1.26769 5.90155 
27.8668 2.78941 6.0048 
27.6775 2.88651 5.84551 
31.042 1.60948 6.63485 
27.8384 2.7756 6.54398 
31.9475 1.22284 7.40213 
31.0234 1.64012 7.35555 
27.8822 2.77841 7.26634 
28.1309 2.83457 7.9888 
28.8559 2.91357 8.83111 
26.3692 3.7131 8.58152 
29.604 2.14332 10.2211 
29.7316 2.00518 10.9799 
27.9133 2.72575 10.8862 
29.16 1.98112 11.5974 
29.7497 0.920453 13.0799 
28.2319 1.4545 15.7294 
29.1964 -0.824083 16.4655 
28.5747 0.414029 17.4365 
28.2547 1.48105 19.345 
27.4916 2.50605 26.2097 
25.8008 3.59554 29.9177 
26.4011 3.59999 30.0199 
29.2142 3.22023 0.539712 
30.4187 2.61374 1.07527 
28.9176 3.01256 1.87269 
26.9902 3.74217 1.79371 
32.574 1.59627 2.43758 
28.8089 3.05004 2.41326 
32.1768 1.30717 3.47282 
26.7438 3.66754 2.9611 
30.9619 1.68352 3.85139 
28.028 2.84406 3.83478 
31.932 1.20827 4.64168 
27.872 2.84159 4.51603 
30.9375 1.65795 5.39672 
27.9316 2.84246 5.28085 
31.9731 1.24964 6.00702 
30.8948 1.66169 6.06231 
27.8342 2.77484 6.60995 
31.9666 1.22852 7.35057 
29.5476 2.20429 7.26585 
29.6774 2.27342 7.97385 
28.1151 2.86053 8.03626 
28.4759 3.01655 8.77987 
26.8253 3.69706 8.8299 
27.9156 3.02261 9.56626 
30.7019 1.72113 10.2075 
30.9479 1.63852 9.9479 
30.6537 1.68544 10.8817 
29.2853 2.18762 10.9289 
29.0734 2.01118 11.6189 
26.8212 1.06267 12.4464 
29.3417 0.941129 12.5395 
30.3411 1.24391 12.1846 
26.6602 0.948801 12.971 
29.2021 0.923853 13.0481 
29.5692 0.992337 14.4698 
27.7399 1.57 16.5504 
28.1093 1.54004 17.9064 
27.8594 1.65489 21.8583 
28.1976 1.58497 22.1446 
28.2618 0.413443 25.0357 
30.5036 2.6235 0.614693 
31.6957 1.9849 1.19807 
31.575 1.98368 1.86062 
26.9297 3.76117 1.82908 
28.7701 3.06264 2.45236 
32.3782 1.27928 3.14523 
30.8812 1.64408 4.6339 
29.5915 2.2308 4.61997 
32.001 1.23074 5.36773 
32.0029 1.24362 6.04218 
31.4034 2.00645 8.79137 
28.5139 3.02076 8.82172 
26.7957 3.71393 8.84879 
27.9527 2.92982 9.62765 
26.9864 3.75772 9.27117 
27.8577 2.78445 10.2178 
27.7976 2.76403 10.9547 
29.5125 1.02215 14.4957 
27.823 1.55334 16.5468 
28.5963 0.54539 17.19 
27.8545 1.5931 17.7295 
28.7626 0.628989 18.8599 
28.7875 0.795841 19.3214 
28.7918 -2.17496 20.4294 
27.8956 1.63044 21.7936 
28.9345 0.876062 22.5929 
28.963 -0.478225 23.6116 
28.6129 1.8276 24.24 
27.0091 2.54905 26.1742 
27.9013 3.43483 1.08553 
25.9147 4.23135 0.806062 
29.5921 2.78359 1.81065 
27.7775 3.38962 2.44291 
29.4959 2.82714 2.20359 
30.8162 2.20846 2.80063 
31.1924 1.56061 4.02722 
28.9022 2.50057 3.81621 
26.9202 3.17125 3.89339 
30.37 1.88313 4.64505 
28.8843 2.49386 4.60896 
31.3978 -1.18812 5.22844 
31.2714 1.52624 5.19688 
28.9303 2.47856 5.26661 
30.2486 1.89838 6.57746 
26.9091 3.16348 6.59579 
26.9431 3.17067 7.391 
31.796 1.57399 8.23836 
27.6037 3.30367 8.60522 
29.4048 2.80297 9.01551 
29.1698 2.61379 9.57622 
28.4056 2.60566 10.2077 
28.9435 2.4544 10.1169 
28.2333 1.06958 12.5826 
30.5385 1.18935 12.1506 
29.1259 1.50613 12.1017 
28.1298 0.992883 12.9986 
27.7032 0.957153 13.7726 
28.0962 0.963054 13.5083 
27.89 0.972467 14.2422 
28.3243 1.25589 15.0558 
28.9668 1.25285 15.1349 
28.606 1.30576 16.0158 
26.9784 1.89224 19.0644 
26.9203 1.94941 20.522 
27.5627 2.17392 21.0434 
28.1732 2.27802 24.1433 
26.3376 3.02161 27.9367 
26.6376 3.1298 28.4118 
29.1507 3.22474 0.57847 
30.7556 -4.7966 2.33455 
32.6722 1.56859 2.39756 
26.1605 3.60044 3.61845 
32.0195 1.2149 5.17974 
32.0158 1.23373 5.88172 
30.9675 1.63772 6.57244 
27.6477 2.85046 6.55048 
27.6675 2.86562 7.29081 
30.9937 1.7306 7.9495 
32.4205 1.60013 9.27148 
27.7664 3.04024 9.62247 
30.6111 1.76858 10.1378 
29.4509 2.23769 10.069 
29.2904 2.20448 10.7983 
30.3566 1.54032 11.4619 
27.1653 2.66136 11.6267 
28.9761 2.15875 11.3762 
26.7328 1.05834 12.5084 
29.9154 1.21573 12.4036 
31.0593 0.940464 11.9378 
30.1064 1.45419 11.926 
29.2597 1.06616 14.332 
28.6165 0.992674 16.6053 
28.6977 -2.08475 17.9603 
27.8044 1.62663 17.7774 
28.6252 -1.9835 19.401 
27.7617 1.77162 19.7495 
28.1922 1.79137 20.0637 
28.3417 1.91298 20.6867 
28.9149 0.931127 21.9784 
29.0139 -1.77419 22.4653 
28.3294 2.19719 24.2301 
27.8927 3.47956 0.499359 
29.8708 2.97299 0.46006 
25.6996 4.25165 0.555775 
31.2586 -3.46015 1.88421 
31.9113 1.85013 1.93357 
29.5229 2.81251 1.82325 
32.9207 1.13353 2.36097 
27.7463 3.41289 2.39795 
32.3853 0.988068 3.22762 
30.6243 2.13117 3.04874 
30.3453 1.95864 3.91755 
31.2525 1.53164 4.05889 
28.8039 2.51337 5.73299 
30.0283 1.95981 6.56645 
31.2581 1.51892 6.55939 
31.3025 1.61025 7.93338 
30.3258 2.1205 8.21334 
31.8292 1.80135 8.70979 
29.1999 2.73499 8.64922 
30.6 2.28249 8.732 
31.3314 1.79876 9.53843 
29.1676 2.90115 9.17183 
30.0609 2.01303 10.1264 
28.4933 2.57055 10.2408 
27.9317 2.33241 11.9034 
30.6339 -0.0666379 12.7995 
27.6166 0.971221 13.1104 
28.1164 1.0463 12.8602 
29.8682 0.890156 13.1889 
30.271 0.909771 12.9111 
28.5556 1.41371 15.3535 
28.3779 1.1134 17.1637 
28.376 1.19644 17.8141 
28.9988 0.567408 22.7839 
28.2647 0.365107 25.0642 
27.535 2.48788 26.1257 
26.2981 3.25999 28.5096 
32.7723 0.225658 0.559203 
29.1003 3.22745 0.610102 
26.8055 3.81307 1.71273 
30.1933 2.49284 2.47725 
26.7659 3.78908 2.4608 
32.3803 1.1539 3.2272 
28.1678 2.93027 3.27337 
32.2547 1.05837 3.57581 
31.0032 1.62534 5.18134 
29.5511 2.25987 5.17209 
30.597 1.77639 6.64032 
29.3221 2.22139 6.61586 
29.2132 2.32448 7.4143 
32.0324 1.44939 8.2291 
29.5495 2.31758 7.99845 
29.8252 2.49742 9.3635 
26.4308 3.88461 9.37149 
29.2326 2.31847 10.2302 
27.614 2.87854 10.1367 
27.5627 2.85718 10.843 
29.8011 1.64436 11.7422 
29.8395 1.29492 12.3019 
30.5504 0.785134 13.0124 
28.9738 0.930521 13.6008 
27.7995 1.80235 19.2307 
28.617 1.20102 19.8098 
28.2088 1.81406 20.1395 
29.0131 1.14783 21.1458 
26.974 1.75367 22.178 
27.7152 1.91809 22.8897 
28.1414 2.12691 23.445 
32.7418 0.117629 0.450334 
32.7627 1.60237 1.21778 
28.5012 3.23504 1.16327 
28.9714 3.19707 0.903489 
26.7976 3.84908 1.01973 
26.7459 3.83221 1.78784 
30.1945 2.5177 2.34819 
26.715 3.81998 2.42364 
28.1757 2.96492 3.17624 
30.7043 -3.17174 4.07051 
26.0418 3.63344 3.58757 
30.9082 1.65504 4.33469 
30.6687 1.76481 5.99769 
30.6657 1.75435 6.70793 
27.6339 2.85191 6.63031 
30.6682 1.80011 7.44015 
31.987 1.25527 7.96206 
31.967 0.0836112 8.60117 
31.1207 2.0177 8.56825 
29.7088 2.53301 9.39351 
27.5428 2.8985 10.2019 
30.1732 1.58955 11.4047 
29.1553 0.975747 12.4726 
28.3771 1.91804 11.9959 
28.8488 0.92169 12.9462 
29.0159 1.15291 15.8061 
28.781 0.99218 16.3829 
27.0702 1.583 17.2081 
28.9421 -0.191813 17.8382 
28.7969 1.16189 20.1373 
27.8021 2.06937 20.4095 
27.6659 2.13306 20.7776 
28.8938 1.25648 21.1853 
27.0609 1.77532 22.066 
27.8736 2.19959 23.642 
28.375 0.188589 25.6219 
28.2683 2.41334 25.3918 
27.5993 2.35891 26.3361 
26.8053 2.96964 27.808 
26.2264 4.13215 0.558567 
27.0575 3.78618 0.485704 
31.7641 1.95762 0.968422 
30.6097 2.47334 1.13669 
26.3177 4.03383 1.1364 
26.9644 3.77514 1.05661 
32.7829 1.53646 1.8205 
30.4252 2.44188 1.83502 
26.2428 4.02195 1.74855 
27.7435 3.40672 2.49643 
26.0835 4.01948 2.47947 
26.9017 3.75657 2.33967 
31.3282 1.76208 3.17891 
26.7115 3.63649 3.02098 
31.1884 1.59463 3.84377 
27.0188 3.14093 3.82195 
28.7813 2.55356 4.54819 
26.4086 3.31618 4.52521 
28.5855 2.59762 5.24723 
29.983 2.02324 6.04437 
31.9958 1.01025 6.6248 
28.6027 2.51373 6.63393 
26.3616 3.40846 7.40027 
27.0011 3.14343 7.3605 
26.419 3.43674 7.94003 
26.6385 3.5501 8.37619 
29.0535 2.74363 8.58377 
32.3462 1.16243 9.40816 
29.9854 2.04784 10.1469 
28.5282 2.56883 10.1707 
29.7022 2.17109 9.94445 
26.8409 3.06717 10.1663 
29.7979 1.98863 10.8482 
30.7196 1.34554 11.7387 
30.8795 1.47907 11.3097 
29.9734 -0.95984 12.5409 
27.3148 1.87355 12.0637 
29.9801 0.837319 13.5552 
28.3784 1.2183 14.9331 
28.6151 1.31423 15.9809 
28.8691 1.26724 15.674 
27.0798 1.96732 20.4753 
27.5167 1.94518 21.4485 
27.7487 2.2376 23.6983 
28.1261 2.50043 24.7999 
27.6743 2.3757 26.1788 
26.41 3.18675 28.2634 
26.2502 3.38298 29.1688 
31.4407 2.0749 1.09817 
29.0665 3.14088 1.02153 
32.5908 0.203779 1.79101 
27.4912 3.54979 1.83285 
31.0105 -3.70266 2.94703 
31.1832 1.79756 3.24517 
28.9079 2.82348 2.92907 
26.9136 3.14196 4.61844 
29.6188 2.20201 5.86669 
29.8133 2.03349 6.64057 
32.0509 1.24345 8.04126 
29.8582 2.43151 8.56907 
27.4602 3.41845 8.71143 
25.6672 2.41982 9.44277 
28.4072 2.74168 9.68613 
28.9955 2.91422 9.32335 
28.3965 2.59952 10.172 
29.6728 2.05596 10.7623 
28.3144 2.54909 10.9072 
26.4223 2.93331 10.976 
27.7194 2.54828 11.6107 
28.1677 2.44114 11.5116 
28.4136 1.20041 12.4037 
26.3272 1.49693 12.0025 
29.13 1.64792 12.021 
30.2478 1.00199 12.7421 
28.1516 1.01489 14.2957 
28.4372 1.26251 14.9968 
28.5742 1.32783 15.9805 
28.7943 -0.0866636 17.238 
28.7796 -0.0657539 17.948 
28.454 1.25868 18.6092 
28.9185 0.119107 19.185 
27.0347 1.89433 19.9981 
28.4223 1.31621 21.557 
28.1229 2.52842 24.8568 
28.1691 2.47102 25.4715 
29.2551 3.19944 0.657046 
32.5968 0.238968 1.83362 
32.5157 0.173792 2.60099 
30.7309 -4.10348 3.18328 
27.3935 3.37258 3.00584 
28.4234 2.67428 3.88495 
29.7242 2.19451 4.47783 
29.7393 2.17464 5.1551 
29.7479 2.07784 6.17832 
29.7333 2.06058 6.64475 
29.824 2.23818 7.99981 
32.3233 1.60214 8.78653 
29.9149 2.38405 8.50829 
28.8274 2.90262 8.79815 
31.09 -1.33758 9.95189 
28.3526 2.60975 10.1725 
29.6936 2.14733 10.0099 
30.8702 1.61773 10.7318 
29.4862 1.91524 11.3388 
27.8414 2.47205 11.7109 
28.4261 1.22506 12.3789 
26.4169 1.49645 12.0159 
29.1932 1.74362 11.9643 
30.1898 1.04113 12.6952 
28.4035 1.20884 17.1909 
27.2311 1.98211 19.2475 
26.4268 3.01842 27.8633 
30.6206 2.5254 0.656601 
30.5854 2.47352 1.2373 
28.36 3.29261 1.14057 
29.8151 3.02708 1.01829 
32.6556 1.58758 1.59814 
28.3475 3.20696 1.74511 
28.3047 3.1903 2.38438 
27.6126 3.24727 3.06485 
31.2372 1.58661 3.77938 
27.6886 2.9491 3.79519 
31.1586 1.53598 4.61998 
31.1666 1.54743 6.0057 
30.3262 1.87185 6.6222 
30.4948 1.97609 8.04696 
27.7376 3.00776 8.03704 
28.1265 3.1679 8.80783 
26.4389 3.79268 8.7678 
32.383 1.17344 9.39187 
28.2291 3.20986 9.30805 
26.8223 3.82071 9.34703 
29.0594 2.41256 10.2329 
28.9373 2.33502 10.9331 
29.1181 1.04146 12.4278 
27.5232 1.72987 12.0994 
26.9863 0.918437 13.5322 
28.8967 0.931063 13.5964 
30.3973 0.726029 13.493 
26.9041 0.930369 14.2264 
28.5559 0.997792 16.6937 
28.6336 0.630581 18.446 
28.1817 1.66934 18.6969 
27.7467 1.78618 19.8032 
28.1712 1.83408 20.0975 
28.9869 1.15999 21.233 
27.0668 2.60794 26.2964 
30.654 2.43075 1.25623 
29.826 3.03718 0.994149 
26.7611 3.88365 0.885479 
30.5726 2.37437 1.78366 
26.454 3.89837 2.55076 
31.5733 1.70767 3.1111 
29.2269 2.64279 3.00751 
31.2412 1.50263 4.64139 
30.9648 -2.39646 5.41969 
28.9414 2.37865 6.64508 
26.2305 3.62398 8.31442 
26.4968 3.80727 8.84189 
30.3551 2.01754 9.6247 
29.575 2.68412 9.25337 
27.7433 3.1822 9.54347 
28.187 3.2481 9.29058 
26.7544 3.85165 9.36248 
31.2078 1.48928 10.2282 
29.8285 1.72522 11.4312 
27.6274 1.65803 12.1173 
29.7756 1.57961 11.9558 
26.8677 0.913403 13.6118 
29.1869 1.18648 15.0022 
29.2923 -0.345114 16.0018 
27.6624 1.51135 16.0295 
27.9022 1.7794 18.4134 
27.8741 1.68615 22.0071 
28.1973 1.81886 22.6563 
28.4325 2.00266 23.4674 
27.209 2.72634 27.0971 
30.164 2.81001 0.37826 
32.9936 1.48582 0.989745 
27.0184 3.76718 0.992308 
25.7509 4.26622 0.978554 
33.0002 1.42421 1.76215 
29.7981 2.74811 1.62327 
28.4427 3.17408 1.77976 
28.4325 3.16739 2.38402 
27.0802 3.69376 2.32694 
30.8706 2.1555 2.84409 
28.274 2.73889 4.54575 
26.7626 3.22236 5.18676 
29.9876 -4.74506 5.79387 
31.7884 1.19361 5.98462 
26.7103 3.23427 5.90655 
29.435 2.1954 6.83095 
26.77 3.22253 6.63867 
31.7897 1.32456 7.37985 
28.1959 2.66805 7.29663 
26.7595 3.25302 7.34159 
30.6143 1.91951 8.00422 
26.9127 3.29093 8.06076 
25.7241 2.63808 9.4277 
31.576 1.10519 10.213 
28.1447 2.62144 10.9103 
28.4264 1.6839 12.0845 
29.8435 0.973622 12.8744 
27.8187 0.971857 13.7144 
29.7601 0.889635 13.5109 
28.3594 1.24559 17.1709 
28.4146 1.3169 18.5651 
27.1913 1.98894 19.1988 
27.1523 1.96209 20.3634 
28.4139 1.45735 21.4077 
26.9754 1.82539 21.9209 
28.5993 1.71792 24.1852 
27.8655 2.39854 24.1238 
28.1095 -0.841373 24.733 
28.1413 2.53799 25.3598 
26.7291 3.02525 27.8998 
32.5317 1.63249 1.59792 
27.7985 3.41078 1.82251 
28.9777 2.98251 1.97516 
30.3178 2.26669 2.99079 
29.7447 2.18916 4.39969 
27.0841 3.0909 4.55945 
29.9756 2.07438 5.25962 
29.7804 2.1543 7.45389 
31.1687 1.67362 7.97555 
32.3208 1.28528 9.44082 
30.3498 2.32356 9.4071 
31.3893 0.212366 10.9838 
29.8137 2.01717 10.7327 
27.1258 2.99225 10.8183 
27.1058 2.84133 11.3275 
29.0118 1.13089 12.3637 
26.4259 0.837981 13.0906 
30.3955 0.546049 13.7377 
26.4803 0.858445 13.5203 
26.4378 0.797046 14.181 
26.7199 0.925721 14.3602 
27.5459 1.49356 16.0152 
28.5127 0.639902 17.7753 
27.7535 1.6613 17.7811 
27.8043 1.70606 21.4811 
28.9927 -0.635056 23.3464 
26.3554 3.27731 29.5842 
26.5053 3.71011 30.4274 
31.0472 2.19575 0.538117 
31.1009 2.20875 1.21292 
31.0675 2.18728 1.84254 
27.8199 3.39954 1.78109 
26.3936 3.96297 1.73059 
29.8253 2.17331 3.82586 
27.5242 2.99477 3.74843 
28.5865 2.58847 4.73103 
28.7933 2.56933 4.38811 
28.8139 2.46875 6.01247 
29.7118 2.17159 5.77442 
29.8123 2.02605 6.58221 
28.8561 2.45452 7.42092 
29.8774 2.13043 7.49636 
29.9492 2.18983 8.01762 
31.4086 -1.76051 9.00745 
28.2107 3.15641 8.85537 
26.4567 3.76411 9.35918 
30.7577 -0.671542 11.7741 
30.9484 1.28766 11.5884 
27.6023 2.59109 11.5657 
27.0639 1.04402 12.4205 
27.0699 0.960485 12.9992 
27.0766 0.940646 13.6355 
29.0359 0.940186 13.5374 
27.4998 0.972869 14.2689 
29.2696 1.14932 14.9945 
28.2957 1.47477 15.8005 
28.0468 1.46716 16.5178 
26.8499 2.01334 21.3873 
28.4005 1.54333 21.375 
27.8585 0.920594 26.1847 
30.0717 2.7561 1.30715 
26.4642 4.00663 0.950091 
27.6354 3.52754 0.902088 
27.7459 3.43184 1.59951 
28.9288 3.00284 2.00063 
30.999 2.18545 2.47764 
28.9909 2.98627 2.54113 
32.6138 1.01835 2.98262 
30.9312 1.90157 3.2399 
28.5375 2.69214 3.43941 
28.4621 2.86107 3.13472 
31.7881 -0.389892 3.7996 
30.6383 1.82627 3.86756 
30.5571 1.7892 4.62429 
27.1581 3.05737 4.61331 
31.1951 -1.71535 5.44319 
29.7135 2.18807 5.24063 
30.6474 1.77388 6.00125 
28.533 2.576 5.97094 
27.1282 3.06239 6.19421 
29.7267 2.05492 6.52541 
30.6225 1.81115 7.30798 
28.5587 2.55828 7.40623 
27.3907 2.98009 7.37084 
27.4992 3.04325 7.91699 
28.9637 2.69875 9.55379 
29.8869 2.04578 10.2607 
27.6419 1.51464 12.1726 
28.2778 1.91405 12.0023 
29.2455 1.61482 12.0263 
26.9454 2.57786 11.9074 
27.0394 0.928475 13.5663 
27.0031 0.945808 15.165 
28.1363 1.58633 19.2539 
28.8755 0.48653 19.7974 
28.1865 1.70606 19.9093 
28.7866 -1.59648 23.3516 
27.6708 2.57084 24.294 
27.578 2.46976 25.6014 
27.4836 2.40318 26.6939 
26.3938 3.21345 28.2612 
26.4899 3.23479 29.6201 
26.5744 3.10095 30.3554 
30.1396 2.83622 0.618166 
32.7956 1.58711 1.22609 
30.9981 2.23153 1.58876 
28.9393 2.99665 2.60945 
28.5425 2.6554 4.01878 
27.237 3.08181 3.82145 
26 3.63152 3.62206 
30.6178 1.7564 4.64084 
31.7813 1.34513 5.40835 
27.3623 3.0581 5.31175 
27.1994 3.03265 6.24674 
29.6303 2.13907 6.95186 
27.2288 3.0347 6.78797 
30.7027 1.77173 7.26619 
30.9622 1.81602 8.15413 
28.7899 2.65169 8.20461 
30.1995 2.48401 9.00582 
29.6031 -4.80252 9.7174 
30.994 1.84171 9.63312 
31.1499 2.1461 9.21418 
28.6261 2.56502 10.0797 
27.3909 2.95733 10.2198 
30.7078 1.48593 11.397 
27.2469 2.86156 11.2462 
28.9706 1.07847 12.3607 
27.5785 1.46668 12.1925 
28.1944 1.94103 11.9997 
29.2717 1.55042 12.0573 
30.3466 0.878926 13.0141 
27.0494 0.952806 14.3617 
29.5684 -0.220231 15.2523 
29.1822 -0.783893 16.5243 
29.2366 -0.547877 16.2155 
27.8053 1.55798 16.3712 
27.8324 1.55412 17.1188 
28.9568 0.794475 20.6239 
28.1384 1.58951 21.9711 
27.6188 2.62025 24.352 
27.0797 2.30541 25.2991 
26.3802 3.33656 28.9268 
26.5069 3.26916 29.5353 
26.5772 3.21178 30.228 
32.9731 1.55473 0.505492 
27.7716 3.45636 1.23155 
27.6869 3.51678 0.76847 
28.9097 3.00549 2.63891 
31.9601 -0.312313 3.37454 
30.8582 1.96154 3.18097 
28.6235 2.82248 3.06807 
30.7007 1.79588 3.86576 
27.205 3.03374 4.67085 
31.7473 1.35329 5.26239 
30.5762 -3.0158 6.20174 
27.2371 3.03973 6.05413 
30.9606 1.88778 8.2691 
26.349 3.76017 9.33669 
27.3408 2.94296 10.7907 
27.5962 1.2181 12.3657 
26.5085 2.28724 11.9063 
26.9912 0.943986 12.8571 
28.7689 0.925873 12.9842 
27.0354 0.951457 14.4498 
29.144 -0.761085 16.6033 
29.1392 -0.781469 17.1096 
27.7962 1.57223 17.2229 
29.1694 -0.795874 19.3083 
27.7195 1.01983 26.7025 
27.201 2.58994 27.4904 
30.9986 2.26932 0.775746 
26.4545 4.0297 0.786031 
27.6559 3.42155 2.64332 
31.6946 1.32794 4.37848 
30.7301 1.73353 6.57933 
31.7898 1.33189 7.42685 
32.0686 1.73242 8.81896 
28.7723 2.68968 9.6132 
29.8711 2.26731 9.6203 
31.5971 0.925287 10.7941 
28.7767 0.917525 13.6219 
30.198 0.774225 13.5305 
30.1488 0.62127 14.0695 
27.1274 1.08271 15.5736 
29.1247 -0.604758 17.4125 
28.3047 0.162356 25.1279 
27.1034 2.45151 24.6841 
27.1344 2.42678 25.6712 
27.3645 2.5627 26.1827 
27.4288 2.60676 26.6753 
28.3167 3.35427 0.398463 
27.074 3.77733 0.3998 
31.4331 2.04051 1.63858 
31.4141 1.99116 2.63181 
31.7433 1.9354 2.32183 
26.876 3.40185 3.31893 
31.916 1.13034 5.25577 
26.5021 3.33147 5.15102 
31.0728 1.62484 7.50115 
30.5116 1.89543 7.79158 
28.12 2.9297 8.20955 
27.0127 3.68486 8.96939 
30.4658 2.01078 9.60301 
25.9713 2.59364 9.51359 
27.0661 3.66567 9.42686 
28.1837 1.19038 12.4469 
27.1536 1.7842 12.0853 
28.2994 1.72331 12.0772 
27.9027 1.00839 13.0366 
29.6325 0.955958 12.8277 
27.1687 1.90785 18.5765 
27.564 2.03313 20.3767 
27.065 1.9712 21.5137 
29.0375 0.285518 22.8167 
26.7039 2.97901 27.7337 
26.7296 3.05765 28.9012 
32.6228 1.66122 0.99031 
28.3423 3.21416 1.59669 
26.9321 3.19754 3.79711 
27.8487 2.90755 3.77078 
26.5137 3.28012 4.39241 
29.0626 2.47265 8.04178 
26.7837 3.37602 8.04797 
29.5526 2.58791 8.6262 
30.4135 2.03795 9.59113 
31.6804 1.83604 9.43878 
26.2885 2.87169 9.52211 
30.4192 -2.3046 11.0847 
30.7737 0.626397 12.3848 
29.7473 1.23523 12.3406 
27.118 1.88351 12.0638 
28.3142 1.59001 12.1282 
28.8787 1.80829 11.9671 
29.8241 1.5408 12.0366 
29.5418 0.949769 12.8554 
29.2757 -1.55511 13.8191 
29.5901 0.995007 14.3726 
26.388 1.2475 17.9248 
28.374 1.35401 19.4196 
28.3896 1.35428 21.5261 
27.5721 2.24404 23.6922 
27.624 2.47974 25.5521 
27.6581 2.43306 26.0919 
27.7919 0.99094 26.6634 
31.8283 1.94406 0.416956 
31.4561 2.02569 1.8013 
29.0762 2.94803 2.0218 
32.5796 1.60347 2.27769 
29.058 2.9227 2.70375 
30.2415 2.06449 3.4217 
26.3875 3.33105 4.50925 
32.0079 1.05954 5.42727 
31.9592 0.969276 5.97327 
26.3197 3.40362 6.59552 
29.9155 2.18722 7.92294 
27.5568 3.0856 8.09513 
26.4015 3.69297 8.53531 
27.8939 1.69099 12.1003 
29.6603 1.56848 12.0402 
28.2038 2.15297 11.9232 
27.5813 0.994353 12.9487 
28.8724 0.922855 13.0087 
29.1081 1.20111 14.9426 
27.7431 1.79997 19.2642 
28.3263 1.89552 23.2773 
26.8728 2.83722 26.9615 
28.1941 3.34811 1.0329 
29.5238 3.08951 1.03991 
28.1337 3.27859 1.7426 
31.4333 2.01555 2.50648 
30.3702 2.40244 2.62895 
26.4219 3.60491 3.31521 
30.0685 2.05962 3.96475 
30.0129 2.04276 4.614 
31.9434 0.979006 6.56255 
28.8532 2.40144 6.6858 
31.9243 0.977541 7.44809 
26.3073 3.41604 7.3584 
27.8476 3.29671 8.84076 
26.8951 3.74419 9.03173 
31.2081 2.12678 9.189 
31.6966 0.475356 9.96129 
30.8371 1.44188 11.4195 
27.6153 1.22988 12.3248 
28.1892 1.64008 12.1157 
29.5978 1.59632 12.0378 
26.8955 2.35668 11.9447 
30.4202 0.863929 13.0304 
27.8756 1.77816 19.1524 
28.1778 2.0316 20.5845 
28.9369 1.12261 21.4263 
28.2099 1.78934 21.173 
28.1994 1.98174 23.216 
28.2402 2.45699 25.5181 
26.9666 2.65927 26.3698 
26.9563 1.06461 26.8184 
26.9759 2.83851 27.0883 
26.1763 3.4089 28.9312 
26.8631 3.79304 1.22083 
30.3965 2.4449 2.00172 
28.0973 3.28793 1.84993 
30.3418 2.39084 2.70755 
29.2152 2.90516 2.57872 
26.8392 3.77849 2.1967 
32.4036 1.44732 3.00367 
30.2002 2.18923 3.18632 
26.4819 3.58261 3.32007 
28.9039 2.49953 5.45256 
27.5586 2.88987 6.81986 
30.0102 2.20798 8.1586 
29.8895 2.18592 9.61401 
30.1852 2.41304 9.40173 
25.824 3.0451 9.41775 
26.4308 3.59854 9.36914 
27.2132 2.65466 11.7081 
27.3909 2.73168 11.3756 
29.5666 1.61023 12.0367 
28.1063 1.85181 21.1852 
28.136 2.02485 23.1854 
27.0703 1.06527 26.8704 
27.0274 2.83916 27.1516 
27.0225 2.8438 27.717 
26.4188 3.81647 30.3629 
28.9043 3.20446 0.893287 
29.7475 2.99439 0.918369 
26.3173 4.04484 0.99284 
32.9923 1.2441 1.74779 
28.384 3.19256 1.73982 
26.2704 4.00178 1.86669 
30.443 1.9732 3.43693 
31.8489 1.08228 4.34489 
26.869 3.17326 5.07843 
31.8234 1.16833 6.07364 
27.0677 3.10832 5.95757 
28.3858 2.69486 7.87147 
29.7461 2.32473 8.22883 
27.3785 3.53534 8.9221 
26.9624 3.13096 9.58886 
26.1946 3.78034 9.43254 
27.3736 3.56315 9.28553 
26.9341 3.05924 10.7797 
27.6643 2.61152 11.4954 
26.5618 2.82045 11.2778 
26.9464 1.09601 12.3736 
28.335 1.22303 12.3677 
28.8617 1.74479 12.0049 
28.3794 1.00439 12.91 
26.4566 0.807622 15.0293 
27.0872 1.61921 17.266 
27.6509 1.87603 18.6078 
27.5325 1.9119 19.2153 
26.4255 3.21939 28.3864 
29.8808 2.95179 0.827668 
30.9084 2.22235 2.39144 
27.4432 3.53761 2.6238 
28.3882 2.73009 3.48338 
27.1224 3.36177 3.1754 
28.3748 2.72312 4.16557 
28.3422 2.69171 4.79542 
27.031 3.08778 4.36978 
31.7555 1.28439 5.04381 
28.3298 2.69363 5.43005 
31.7144 1.27323 6.14244 
30.4728 1.8526 6.03707 
31.6101 1.41129 5.63724 
26.9117 3.16108 6.82145 
31.5682 1.42438 7.40462 
30.5113 -4.03879 9.68808 
30.2304 1.50298 11.6396 
27.801 2.55143 11.5553 
28.1494 2.50542 11.3513 
29.9355 -1.56086 12.2132 
28.5003 1.34867 16.0011 
27.2209 1.87553 18.3757 
27.4919 1.91766 18.6462 
28.4284 1.43447 19.0843 
27.2278 1.91258 19.8601 
27.45 1.90615 20.11 
28.3463 1.54452 21.3489 
28.8834 -0.15962 23.7069 
27.1009 1.80689 23.3533 
27.5893 2.44836 25.49 
26.5093 3.19664 28.4222 
28.1377 3.36876 0.961411 
29.6609 3.05524 0.794504 
26.8473 3.80479 1.09524 
32.5025 1.63335 1.85199 
30.3736 2.4673 1.8193 
32.4657 1.60641 2.60379 
26.7958 3.7696 2.37592 
26.403 3.42702 3.74814 
26.3127 3.34952 4.3417 
26.3499 3.39278 5.08679 
28.9972 2.34138 6.44035 
26.3218 3.40452 6.68736 
29.9504 2.07354 7.25527 
26.4082 3.53791 8.21289 
27.8595 3.26946 8.79465 
26.7459 3.77907 9.00401 
25.478 2.61404 9.55143 
26.1199 2.97388 9.44383 
26.793 3.76825 9.37806 
29.6713 1.80492 11.4296 
27.5479 1.01222 12.8474 
30.2866 0.593846 13.8365 
29.2811 -1.14346 15.5831 
26.0693 3.43771 29.0027 
26.1678 3.5929 29.7351 
26.3993 3.78779 30.2392 
26.0954 3.54956 31.1312 
26.3901 3.99676 1.13375 
28.971 2.97956 2.03092 
29.8315 2.65099 2.37905 
30.6381 1.82931 3.79029 
29.5967 2.24514 4.02802 
26.2751 3.45585 3.83087 
31.8612 1.20771 4.24921 
31.8597 1.24186 5.00416 
30.5995 1.77941 5.15936 
28.4309 2.65433 5.42909 
26.2457 3.42787 5.23566 
30.5895 1.79523 5.86146 
29.5826 2.19808 5.91262 
26.2171 3.40124 5.96852 
31.8849 1.12516 6.50831 
30.5798 1.77307 6.50268 
27.442 2.92503 6.579 
28.3834 2.596 7.30647 
30.9503 1.92922 9.5585 
26.2818 3.8379 9.47331 
30.3831 -2.58857 10.7109 
27.6478 1.19544 12.3852 
27.8033 1.46149 15.8061 
27.8589 1.54183 17.2288 
27.7802 1.69946 21.6173 
28.1071 1.74511 21.2729 
28.2024 2.13705 23.5067 
27.5882 0.876917 26.8993 
26.2457 3.43153 29.0655 
26.247 3.21905 31.196 
26.2147 3.23918 31.6634 
26.4351 3.93679 2.01586 
26.4228 3.85345 2.69211 
31.8027 1.41796 3.58207 
29.6265 2.23299 4.11086 
27.4524 3.02351 3.68687 
30.6567 1.75522 4.34232 
29.605 2.20007 4.80401 
27.4105 2.97071 4.37822 
31.8248 1.28314 4.9962 
26.1936 3.44542 5.3101 
27.4412 3.0076 5.15416 
31.8309 1.28288 5.79159 
30.6478 1.76655 5.77366 
26.1567 3.40368 5.99054 
31.8315 1.22092 6.43729 
27.3838 2.94538 6.49484 
26.186 3.43531 7.37758 
27.3936 2.9615 7.14897 
30.9994 2.22416 9.21648 
28.4344 2.60015 10.1639 
29.5944 1.98818 11.0673 
27.6231 1.1728 12.4136 
27.5207 1.00719 13.0025 
28.8014 0.624236 19.1839 
28.8668 0.795081 19.965 
26.3826 1.64488 22.008 
27.0395 2.43511 24.8252 
27.4863 0.819906 27.0172 
31.7829 1.93466 1.21035 
32.5812 1.58184 2.38328 
29.715 2.71468 2.37383 
30.5724 1.87616 3.63892 
31.664 1.47042 3.56735 
29.1373 2.41414 3.70367 
31.4949 1.39802 4.22848 
30.5451 1.808 4.34861 
27.0407 3.12715 5.2492 
28.3477 2.59508 6.52678 
27.0313 3.10745 6.82852 
28.3583 2.60261 7.18613 
27.0447 3.1202 7.46221 
27.3945 3.15614 8.09674 
28.4327 2.98237 8.66194 
27.0904 3.05763 10.1228 
27.0315 3.03849 10.8346 
31.2029 0.197862 11.287 
29.2166 1.93354 11.6385 
27.5682 1.19285 12.3844 
27.8887 1.80767 12.0508 
28.968 1.5903 12.0758 
28.8041 0.652127 16.6112 
25.8228 0.80648 17.8041 
28.0313 1.80388 18.6847 
26.5538 1.82625 20.0126 
29.0163 1.06909 21.4073 
28.2507 2.01413 23.2018 
26.4465 3.40524 29.8026 
28.4563 3.30261 0.386789 
28.4146 3.24048 1.21089 
30.5438 2.40489 1.57973 
32.5863 1.36888 2.94466 
31.662 1.71851 2.98969 
31.5947 1.49664 3.55999 
29.2559 2.37415 3.63499 
28.3458 2.72331 4.37259 
29.2572 2.3558 5.19484 
26.099 3.46673 7.86318 
27.3695 3.22242 8.2373 
25.8558 3.22145 9.42597 
31.1792 0.109417 11.2688 
31.3445 0.878219 11.3752 
26.2682 1.60624 11.9734 
26.7961 2.34237 11.9461 
30.141 0.774591 13.6105 
25.8033 0.744811 18.4527 
26.5485 1.8023 20.6533 
28.8649 0.489103 23.6479 
28.8939 0.772393 23.3604 
28.2312 2.02879 23.1858 
28.4042 2.33744 25.4134 
27.2126 2.5925 26.2003 
26.4014 3.40745 29.0722 
25.631 4.31378 0.6035 
31.0117 2.25131 0.747064 
29.9093 2.6731 1.69311 
26.9056 3.38197 3.32096 
32.0883 1.20239 3.76929 
26.3628 3.37077 5.44372 
27.5663 2.96408 5.15639 
29.0154 2.40036 5.95903 
26.4533 3.35448 7.36638 
27.5385 2.90058 7.18248 
26.2123 2.57659 11.3518 
28.8276 2.22051 11.456 
26.7929 1.14575 12.3665 
27.6597 2.35357 11.9393 
26.7378 0.907587 13.704 
26.84 0.938586 14.4669 
28.2896 1.54128 18.9726 
28.4301 1.33901 19.7493 
27.6764 1.80135 21.4911 
27.5402 1.73472 22.0768 
28.4856 1.27179 24.7309 
32.0111 1.80996 1.61489 
29.9133 2.58164 2.56077 
26.7581 3.42757 3.35599 
30.9736 1.66691 3.78034 
26.4474 3.33344 5.51054 
26.4452 3.31653 6.39546 
27.6109 2.87012 7.19923 
31.0359 1.81184 8.19623 
26.2453 2.67318 11.2931 
27.5822 2.37399 11.9396 
26.7446 0.932375 14.4608 
29.571 1.0043 14.2949 
28.377 1.30661 16.362 
28.3991 1.28503 18.5062 
27.4975 1.88567 18.4825 
28.197 0.499511 25.6826 
26.5688 2.6151 26.752 
26.8154 3.02982 28.314 
27.3757 3.65475 0.558091 
27.3764 3.58599 1.72816 
29.6694 2.64359 2.6634 
30.5007 2.3427 2.61857 
27.3687 3.55215 2.61136 
26.1015 3.72584 3.28084 
29.0927 2.39408 4.67591 
31.2059 1.5406 6.81296 
30.4508 1.85888 7.13897 
29.5514 2.62184 8.73431 
28.4114 2.92125 8.53161 
28.1815 2.38352 11.6161 
27.4964 1.12409 12.4235 
29.798 -0.11514 14.7985 
26.1443 1.04896 18.0054 
26.5201 1.74471 19.4122 
28.5864 -0.188142 24.276 
27.6426 0.937936 26.8303 
26.6169 3.56344 30.3622 
28.5317 3.24988 0.885308 
26.4024 3.91989 2.26396 
26.2981 3.36137 4.03711 
29.6633 2.22112 5.46606 
29.5597 2.17293 6.06052 
29.7055 2.17382 7.60261 
25.4689 1.79643 9.61913 
26.1508 2.91544 9.38934 
28.7687 2.96645 9.34203 
26.3853 3.71362 9.40932 
27.7111 1.02301 12.9376 
26.0995 0.411179 14.1609 
26.3778 0.791385 14.5081 
27.1581 2.0052 19.2871 
26.9284 1.98189 21.3801 
27.8139 0.824153 26.8511 
28.9189 3.23173 0.417914 
30.6675 2.32935 1.86917 
31.7571 1.87884 2.60682 
31.779 1.59026 3.18157 
30.5661 1.77916 4.4629 
27.5392 2.97829 5.41687 
30.5806 1.78634 6.13475 
26.3612 3.35788 6.06909 
30.5987 1.77362 6.83269 
28.4646 2.55455 6.57686 
30.7103 2.28281 8.88056 
30.6543 2.01562 9.54717 
31.7774 1.79988 9.39984 
26.3245 3.04033 9.35261 
28.7707 3.00603 9.29135 
29.2755 1.13701 12.3288 
27.4708 2.42014 11.9407 
28.1973 1.35394 17.0391 
28.9932 -0.312924 20.0085 
28.9941 -0.38239 20.607 
27.2106 2.18013 21.179 
27.498 2.58329 24.2692 
27.9699 0.913175 25.7504 
27.9222 0.290123 27.1261 
26.4178 2.98346 27.8547 
26.5747 3.29807 30.1779 
30.0214 2.63057 1.62295 
31.9278 1.77757 2.69673 
26.2566 3.96973 2.28524 
27.8041 3.09187 3.15421 
31.0934 1.59599 5.43462 
28.9181 2.46523 5.15158 
27.8832 2.78514 5.93538 
31.9557 1.77647 8.80124 
28.2654 2.9972 8.56244 
28.9841 2.62869 9.63446 
26.127 3.82186 9.38961 
26.8938 3.02149 10.9206 
29.6738 1.60046 12.0275 
28.4391 1.2625 16.3939 
27.5556 1.74952 21.9801 
27.4521 1.82039 22.7673 
32.0074 1.86295 0.888373 
26.1895 4.04611 1.2092 
32.0187 1.78692 1.77063 
30.0497 2.62806 1.5704 
28.186 3.23992 1.55259 
32.0131 1.72693 2.74169 
31.0535 2.16533 2.32602 
28.1847 3.1935 2.56672 
27.8875 3.03564 3.20971 
26.0672 3.80611 3.1167 
28.9662 2.44464 4.00288 
31.9868 1.16177 4.99888 
31.0395 1.61465 5.45636 
31.035 1.58213 6.24465 
26.9171 3.14154 5.79773 
27.8818 2.77601 7.41862 
28.1396 3.05131 8.57316 
28.1578 3.15679 9.39016 
29.8496 1.99105 10.7668 
28.9129 2.05303 11.7273 
25.7912 1.05919 11.9774 
27.0727 1.10221 12.3416 
29.7273 1.19202 12.3879 
27.521 1.82125 12.0738 
28.414 0.998882 12.8569 
28.4357 1.18945 14.821 
29.1436 -1.3111 20.2181 
27.6024 2.20165 20.7569 
28.5494 1.59766 21.1529 
26.7321 3.10214 28.7845 
32.7821 1.58732 1.03403 
27.7643 3.45803 1.13438 
29.8725 2.67165 1.80482 
30.6743 2.31938 1.7953 
32.797 1.29799 2.76164 
31.8599 1.83716 2.62569 
30.6274 2.28686 2.67445 
28.5287 2.62918 3.73041 
26.5012 3.39716 3.68951 
30.5816 1.78983 5.24019 
26.4264 3.33421 6.1408 
31.7113 1.33259 6.59945 
26.4893 3.34997 7.14912 
26.4209 3.3978 7.89766 
26.085 2.69621 9.46055 
26.3079 2.62192 11.4359 
27.4343 2.82296 11.2079 
27.0548 2.29075 11.9622 
27.8422 1.01228 12.9324 
29.1731 0.917107 13.0336 
28.1664 1.46693 15.7716 
28.147 1.49609 17.7924 
27.0494 2.04089 21.4744 
26.9676 1.8055 22.0288 
28.3878 2.35913 25.3852 
27.2398 2.6082 26.2516 
32.7811 1.59205 0.945908 
28.7947 3.02916 2.25579 
25.715 4.05752 2.61433 
29.7128 2.46957 2.93995 
29.5935 2.25343 3.60763 
31.6854 1.31262 4.62406 
29.5937 2.25477 5.4823 
27.6087 2.95556 5.4227 
31.7377 1.31879 5.7408 
28.5032 2.53269 6.37778 
29.5718 2.17448 7.16356 
30.6788 2.34276 9.01756 
24.4195 -0.526628 9.62519 
26.422 3.2241 9.28358 
29.578 2.014 11.0331 
27.4509 2.61956 11.6053 
26.8334 1.20306 12.2408 
26.5392 0.870402 14.6397 
29.1137 0.632609 21.9805 
28.2872 2.1377 23.6148 
27.2121 2.55224 24.3495 
27.1552 2.41012 25.5898 
26.3868 3.40907 29.6391 
29.0078 3.226 0.367076 
26.1619 4.0711 1.08057 
28.1039 3.23295 2.43856 
29.8246 2.42525 2.95328 
29.7377 2.19581 3.63996 
27.6772 2.88257 4.64881 
29.7308 2.18476 5.53591 
31.0519 1.6036 6.90431 
28.9644 2.74496 8.55245 
27.8251 3.19515 8.60034 
26.7738 3.07698 9.43575 
28.7898 2.24941 11.3471 
26.8657 2.8879 11.2473 
26.1271 1.7126 11.9293 
28.3803 0.998072 12.9038 
27.3958 1.78366 21.9901 
27.0687 1.66972 22.7376 
26.608 3.17874 29.7574 
28.444 3.30494 0.500854 
27.5816 3.57496 0.455558 
28.4008 3.17323 1.56132 
32.6285 1.23964 2.97581 
31.5452 1.42685 7.16422 
25.4817 1.69355 9.5261 
26.1088 2.75549 9.34733 
30.5118 1.78863 10.2535 
29.4817 2.22538 9.98149 
29.3734 2.09372 11.0862 
30.4997 1.37014 11.8609 
29.1194 1.97347 11.6265 
26.884 1.52329 17.2976 
28.787 -0.193045 23.9395 
26.2526 3.42271 28.9837 
27.8578 3.44311 0.918675 
27.813 3.3811 1.88078 
26.785 3.5986 3.01343 
26.7965 3.16719 4.78271 
26.7977 3.17774 5.82424 
27.7963 2.76994 6.66742 
26.7985 3.19447 6.7626 
27.644 2.98126 7.93149 
28.9536 2.9476 9.05938 
26.7227 3.06588 9.39412 
28.9688 2.33338 10.7003 
25.5525 -0.782731 12.195 
29.7514 1.1766 12.4113 
27.0789 0.964638 13.026 
27.1676 0.957409 14.9988 
26.0292 0.951894 17.8874 
25.9972 1.04001 19.2022 
30.6922 2.38731 1.20408 
26.1528 4.0319 1.74232 
26.9983 3.72747 1.58731 
30.6432 1.78154 4.0214 
27.1055 3.11067 5.42644 
24.9338 0.815526 9.39653 
26.2102 3.40314 9.35595 
26.9566 3.20163 9.50984 
28.4178 2.99221 9.39463 
28.3582 2.62594 9.96736 
30.5806 1.71288 10.7887 
30.5725 1.36173 11.7833 
30.5575 1.54788 11.3223 
26.8899 1.75175 12.0372 
27.9436 0.981853 13.0469 
28.2484 1.04965 12.743 
29.2617 0.926443 12.9959 
29.2391 1.00508 13.8248 
29.2503 1.0795 14.4458 
29.1911 -0.880175 16.6243 
26.9743 1.49908 16.6547 
29.1858 -0.827061 17.2654 
26.8251 1.58574 22.7768 
26.8349 1.51895 23.4547 
28.2235 2.40019 24.7423 
26.1699 4.14266 0.413489 
27.1115 3.68841 1.5336 
27.1324 3.6138 2.63389 
29.5878 2.49405 2.9732 
25.7859 2.8418 6.68621 
27.0306 3.08966 6.57923 
25.0398 0.814233 9.49853 
26.1094 3.44274 9.38681 
27.0735 3.2695 9.56771 
28.3668 2.98591 9.42758 
30.6285 1.75556 9.96783 
24.9999 0.251214 10.6236 
30.6193 1.70432 10.6909 
29.4477 2.11126 10.8785 
27.0743 2.64813 11.805 
28.1588 1.32599 12.24 
28.1356 1.08199 12.6996 
28.1208 1.01995 14.4402 
28.1752 1.48251 15.8098 
29.1747 -0.790224 17.3043 
26.9988 2.13235 21.1176 
26.1977 3.26573 31.7295 
26.3999 3.5938 3.32199 
27.6574 2.83791 6.06182 
26.4338 3.34567 6.62297 
26.3442 3.20392 9.4387 
30.3659 1.7972 10.6907 
30.3525 1.63766 11.2587 
25.5563 -1.64246 12.2382 
28.9951 0.986616 13.8695 
27.617 0.982737 14.4071 
29.0148 1.25655 15.2529 
25.7469 0.201942 15.5319 
25.7989 0.402822 16.2726 
28.6056 1.1834 19.7549 
27.5756 1.94544 21.389 
26.1901 1.25109 22.6864 
27.5801 2.18796 23.5699 
28.6868 1.20246 24.294 
26.8758 2.76783 26.8918 
25.8036 3.78518 30.3014 
30.3758 2.52901 1.35417 
26.4472 3.94276 1.27887 
27.734 3.38898 2.39482 
28.9553 2.74479 2.99055 
30.2835 1.93796 4.34961 
31.5976 1.36993 6.6358 
31.3825 1.48983 7.61293 
26.5032 3.34064 7.45785 
26.4224 3.12431 9.456 
27.6606 2.86422 9.96854 
27.6026 2.82889 10.6927 
29.9406 1.57464 11.6757 
25.4062 -1.61198 12.1848 
25.4979 -0.508661 12.129 
25.6484 0.191054 12.0402 
27.3957 1.06372 12.4347 
28.9457 1.78154 11.9727 
27.5073 0.978266 13.0802 
30.0231 0.951564 12.9523 
27.4746 1.02254 14.9652 
28.8803 1.31986 15.2933 
25.8311 0.4621 16.1954 
27.5833 2.20507 20.8033 
28.7898 1.22007 21.3922 
27.5436 1.03004 26.801 
26.7395 2.78321 26.9877 
31.5909 1.81759 2.85372 
30.2175 1.89743 6.38795 
28.8862 2.38028 6.82013 
31.4378 1.47027 7.64405 
31.4142 1.8473 9.45626 
30.1896 2.24551 9.50247 
30.1868 1.95884 10.0145 
28.8763 2.44981 10.4015 
30.1758 1.86686 10.6906 
28.8769 2.32977 11.0167 
30.0151 1.53374 11.7138 
30.1638 1.69252 11.2513 
25.3311 -1.59674 12.1582 
28.7594 1.15364 12.3819 
30.0376 1.28603 12.2846 
28.7813 0.956812 13.841 
28.7955 1.13462 14.5776 
27.4162 0.998484 14.9372 
28.802 1.26575 15.8144 
27.5267 1.79229 18.0225 
26.6713 2.79089 27.0357 
26.6535 2.95521 27.5971 
25.8278 4.25557 0.525051 
32.4602 1.67245 1.20942 
30.9994 2.18049 2.29597 
25.7727 3.69043 3.26759 
24.5815 -0.850423 9.75183 
25.115 1.09204 9.51226 
29.6273 2.02596 11.0072 
30.4667 1.61272 11.2453 
26.8244 1.85904 12.01 
28.1659 1.81189 12.033 
27.0295 2.45946 11.9317 
26.539 0.839114 14.9592 
26.7576 0.944535 15.5532 
28.3058 1.36029 15.6624 
26.7967 1.60761 17.8229 
28.1958 2.41108 25.6001 
27.9525 0.77437 26.2002 
27.9326 0.4299 27.0659 
26.9018 2.79267 27.1411 
27.1125 2.81429 26.9595 
27.3588 3.58026 1.88229 
25.7874 2.92934 5.76134 
31.0713 1.58114 6.8116 
28.3266 2.59984 7.1293 
25.3562 1.28234 9.64277 
26.034 4.0177 9.36826 
27.0368 3.0761 10.2132 
26.6702 1.22183 12.2573 
29.567 1.16502 12.3246 
26.5634 0.899912 13.8124 
27.682 1.06466 14.9391 
29.1907 0.980777 15.7981 
26.4067 1.17991 16.6323 
29.1182 -0.309026 18.0363 
27.7068 1.73756 18.0587 
26.5286 1.45265 18.3922 
26.4159 1.7375 20.0061 
26.438 1.76586 21.4202 
27.6906 2.13936 21.0575 
26.4218 1.20834 23.3652 
27.5818 1.01128 26.7745 
29.7502 2.17103 4.06175 
31.102 1.55943 5.78122 
29.7559 2.01552 6.3871 
28.3387 2.98847 8.61087 
25.1365 0.817507 9.61694 
25.3366 1.33295 9.59061 
31.0308 2.00396 9.42992 
30.9546 1.19842 11.6903 
26.7907 1.83089 11.9964 
26.6518 1.00013 12.7304 
27.8456 0.971164 13.566 
27.8149 1.09775 14.94 
26.4889 1.24254 16.6372 
27.76 1.90996 20.0439 
26.5096 1.81201 21.4368 
26.6302 3.20837 28.9279 
25.6475 3.64016 30.4274 
27.2212 3.40209 3.02429 
25.9866 3.43486 3.84001 
30.9583 1.61404 5.73373 
29.469 2.14089 6.55413 
24.7184 -0.374296 9.68846 
30.3627 2.19881 9.47679 
28.1522 2.69052 9.96413 
29.0442 2.36139 10.4122 
27.7534 0.984119 13.5194 
27.725 0.966531 14.1655 
26.0783 0.622026 15.5821 
26.2509 1.55425 22.0512 
28.3808 1.98723 23.4147 
29.1423 3.19788 0.52205 
32.0453 1.82771 1.20548 
28.3184 3.24905 1.26617 
32.3544 1.66805 2.44549 
26.1151 3.46486 3.8019 
27.4939 2.93605 4.0677 
31.0684 1.54717 4.31975 
26.4913 3.1689 9.35328 
28.435 2.96013 9.4484 
29.9662 1.97804 10.3786 
26.4214 2.96125 10.0249 
29.813 1.92983 11.1011 
25.2714 -1.64101 12.1447 
27.7575 1.80041 12.0639 
27.7405 0.984404 12.9724 
28.1703 1.61306 19.7873 
27.0836 2.13168 21.2206 
27.4894 2.56647 24.8855 
26.4922 3.27289 28.9345 
29.2095 3.18381 0.599537 
30.7083 2.31184 1.5412 
30.8587 2.19726 2.62041 
28.3167 3.13282 2.62024 
25.0318 1.8344 3.40225 
28.3995 2.74895 3.36951 
28.4737 2.59786 5.75883 
31.1799 1.51502 6.57711 
28.6009 2.6112 7.96008 
23.5596 -2.45354 9.70368 
30.0033 1.95186 10.4146 
28.816 2.50898 9.98621 
26.4926 2.98026 9.93636 
27.6587 2.82735 10.2866 
27.7432 2.74525 11.0812 
27.8291 0.984834 12.9993 
29.143 0.915076 12.7939 
28.0599 1.49714 16.0264 
28.1983 1.5352 19.7005 
28.3415 1.48341 21.9958 
27.2117 1.71053 22.7409 
31.3228 2.03877 2.38729 
25.7332 3.0401 5.35866 
30.4822 1.80885 6.2307 
25.6617 2.61683 6.07773 
26.8511 2.6534 11.7254 
28.1492 2.38978 11.5687 
25.4987 -1.56535 12.2057 
25.8361 1.01936 12.0028 
26.0702 0.651347 15.8169 
27.2598 1.4141 16.0032 
28.4017 1.07003 16.9951 
27.5226 2.00417 23.1902 
27.5684 2.61692 24.8796 
26.2273 3.34714 29.7179 
26.0757 3.82709 30.4777 
26.164 3.93759 2.63006 
28.99 2.59312 3.22904 
27.9985 2.78 4.35519 
28.1553 2.7276 5.44149 
24.9685 1.03115 9.61984 
26.027 2.63468 9.98997 
28.1214 2.66347 10.2616 
29.1321 2.37904 9.97876 
28.1683 2.57763 11.0035 
24.5871 -1.5763 11.5711 
27.1163 0.942655 13.8183 
26.0763 0.604332 14.9741 
26.108 0.662518 15.6944 
28.3735 1.36347 15.8219 
26.1901 1.05796 17.2167 
27.3824 1.65475 17.1501 
26.3003 1.22119 22.8273 
26.3877 1.4629 22.5121 
26.3831 1.20186 23.3826 
27.6164 0.774314 27.0041 
25.6441 3.16675 30.5045 
30.2205 2.64292 1.30249 
26.25 3.9896 1.59345 
26.2737 3.88808 2.68883 
27.0685 3.4012 3.12433 
25.7346 3.83177 3.01741 
26.2179 3.60826 3.40008 
25.0345 1.12374 4.33655 
27.1109 3.08943 5.1403 
26.3205 3.3331 5.76596 
28.1487 2.64344 6.53035 
25.7552 2.64997 7.14842 
32.3656 1.58617 8.88502 
24.9192 0.896801 9.62348 
27.8838 3.25107 9.37313 
28.1758 2.99647 9.49842 
28.166 2.59403 10.8583 
27.1329 2.98113 10.7678 
26.4072 2.57352 11.5263 
27.5611 2.57513 11.6512 
25.5713 -0.933786 12.2008 
28.4479 1.08602 12.4498 
26.8421 0.930899 13.0387 
26.9229 0.922718 13.8581 
26.7903 1.01647 15.689 
29.2107 -0.9172 16.6375 
26.8474 1.96904 21.4768 
26.7959 0.21553 24.2278 
26.8758 2.30256 24.9646 
27.6291 2.45062 25.622 
27.9146 0.888377 26.4299 
27.8044 0.743639 26.9192 
26.7937 2.76165 26.7554 
25.6887 3.31619 30.6374 
26.0716 4.10864 0.960891 
24.0722 0.185231 1.676 
26.1782 4.00644 1.8438 
24.9622 1.80894 3.2509 
31.9174 1.61508 2.98595 
26.3109 3.363 6.84014 
28.9462 2.39302 7.4039 
25.5781 3.24562 8.87568 
23.5872 -2.3107 9.60705 
26.3731 3.03007 9.40481 
27.081 3.28943 9.61341 
24.7933 -0.391438 9.94646 
28.5976 1.06397 14.3786 
25.795 0.800159 19.3134 
27.5873 2.17493 20.823 
26.2668 -3.30591 22.1023 
26.7805 1.7508 22.0911 
26.7394 2.03404 25.6364 
28.3629 3.16852 1.95759 
28.7925 2.51147 5.46021 
27.8058 2.86288 5.47425 
28.8785 2.37295 6.38168 
28.7918 2.96459 8.96566 
31.5956 1.53152 9.63665 
24.7939 -0.396052 10.8806 
26.4742 1.80343 11.9618 
26.7704 0.892829 13.5828 
28.6469 1.06385 14.3643 
25.8042 0.24958 15.21 
27.6022 2.16472 20.8084 
26.1554 -3.26383 22.1333 
26.1038 -3.41503 22.5537 
26.7815 1.56743 22.7131 
28.2346 3.20625 2.02611 
27.0972 3.66945 1.91155 
31.8679 1.79033 2.51832 
24.3963 0.233629 3.25163 
29.505 2.37429 3.24475 
26.5983 3.44804 3.40174 
26.8289 3.14238 4.03322 
25.3422 1.93016 5.79228 
