ply
format ascii 1.0
comment Created by CloudCompare v2.11.1 (Anoia)
comment Created 2026/6/4 下午2:16
obj_info Generated by CloudCompare!
element vertex 1934
property float x
property float y
property float z
end_header
15.2505 11.3856 13.6952 
30.4017 4.13112 14.348 
39.0375 3.6015 14.2056 
30.293 8.21193 14.1954 
16.3721 8.51894 14.3802 
17.5828 10.5909 14.4023 
15.2989 11.3901 14.1951 
15.6491 11.3753 14.4798 
31.6022 4.58777 14.9425 
33.3354 4.56321 14.9458 
30.0601 8.03321 14.8848 
17.6017 10.3047 15.2098 
15.7504 11.3518 14.9836 
34.2947 4.19044 15.4502 
31.2247 4.64224 15.6635 
32.4857 4.81566 15.6024 
16.2056 8.25484 15.7816 
17.5425 10.2127 15.8114 
14.8203 11.1198 16.066 
30.0356 3.57721 16.3247 
31.0231 4.15977 16.7051 
33.9782 3.96157 16.5267 
31.2188 4.23721 16.5173 
32.4204 4.41116 16.4192 
16.2411 8.20245 16.374 
15.0817 11.1646 16.5543 
29.8273 3.29167 16.9232 
35.0519 2.88686 17.2226 
31.1785 4.13294 17.3012 
31.8662 4.32835 17.0322 
16.4929 8.70791 17.3868 
17.6652 10.4395 17.2132 
15.6263 11.361 17.3368 
34.9878 2.74923 17.826 
31.8708 4.2173 17.6523 
32.5679 3.94752 18.5481 
16.8859 8.72579 18.4741 
17.6606 10.3584 18.3361 
30.5117 3.11576 18.9982 
33.8006 3.12801 19.2728 
31.6214 3.5813 19.2311 
32.7279 3.59489 19.2491 
16.2474 11.2696 19.2586 
16.3404 8.34061 20.0034 
16.2269 11.2607 20.7463 
32.2294 2.15929 21.0687 
16.9087 10.008 21.3566 
16.6263 9.89919 22.1167 
15.8678 10.9908 22.0825 
31.8679 1.04984 23.2254 
34.8026 9.58493 0.644836 
37.2778 8.5185 1.20446 
33.7967 10.2331 1.00095 
32.0134 10.9876 1.14903 
29.193 11.5103 1.12241 
27.842 12.1504 1.1553 
30.0431 12.1621 1.22468 
26.8015 12.9046 1.22046 
23.257 13.8058 1.23221 
25.0001 14.26 1.21753 
25.7912 14.0506 1.25156 
31.9983 11.0131 1.83327 
32.7356 10.7219 1.84416 
28.5538 11.6131 1.74203 
29.2796 11.5266 1.7278 
14.8742 12.4485 1.96014 
30.0594 12.1655 1.78649 
14.8758 12.6162 1.49594 
23.3256 13.7192 1.61156 
25.8964 13.9421 1.92595 
22.664 14.1204 1.66805 
25.1677 14.2365 1.81924 
25.7424 14.0649 1.71717 
36.8585 8.64462 2.47369 
37.2066 8.53807 2.30656 
32.6297 10.8079 2.46395 
28.4337 11.6746 2.50553 
29.3361 11.3597 2.43906 
31.3769 11.3957 2.37766 
15.0296 12.3359 2.47981 
27.6739 12.1183 2.33447 
26.8141 12.9606 2.47807 
26.2476 13.6664 2.48709 
22.7502 14.0877 2.39909 
25.5112 14.179 2.5054 
41.65 5.2749 3.25167 
36.8562 8.65543 3.05323 
31.4652 9.56171 3.45037 
35.7372 9.20161 3.23116 
30.5647 10.1296 3.44526 
31.3247 10.0859 3.38163 
32.0359 10.1682 3.29338 
33.1738 10.422 3.28132 
28.4996 11.0392 3.39479 
30.6012 10.8897 3.29389 
31.3618 10.7426 3.26665 
32.0879 10.8461 3.21034 
16.8808 11.398 3.1767 
27.9229 11.3275 3.34012 
28.184 11.7139 3.13003 
28.9482 11.3932 3.09187 
30.3665 11.5507 3.20861 
15.1384 12.2802 3.18227 
18.7572 12.4251 3.36949 
20.6932 12.295 3.33345 
25.997 12.3029 3.43199 
26.9684 12.49 3.18486 
27.6122 12.1105 3.15267 
19.1498 12.8293 3.14779 
19.9576 13.1427 3.07612 
22.8189 12.7105 3.44214 
23.2323 13.0069 3.23782 
25.7758 13.1131 3.41124 
26.3091 12.9182 3.20204 
26.9636 12.965 2.94497 
20.413 13.4879 3.11126 
21.1813 13.9058 3.19745 
22.6901 13.7394 3.21612 
23.5642 13.5326 3.11007 
24.1442 13.8204 3.14466 
24.9367 13.5696 3.36242 
25.3789 13.7988 3.2105 
21.5775 14.1699 3.10887 
21.997 14.4358 3.05273 
22.9055 14.0452 2.80696 
24.4546 14.0864 3.12571 
24.6977 14.3115 3.06655 
31.4237 9.35781 3.83728 
32.2778 9.20206 3.82496 
18.2814 10.3334 4.05159 
19.5182 10.0713 4.18518 
33.0543 10.3808 3.89038 
18.9855 10.8671 3.94669 
25.327 11.074 4.19752 
27.8578 10.9406 3.98429 
28.8418 10.9996 4.00651 
29.5569 10.998 3.86915 
17.014 11.2744 4.00914 
21.6743 11.3687 4.17795 
22.1576 11.7956 4.11508 
23.3531 11.5382 4.17606 
24.3713 11.2782 4.18587 
24.8562 11.551 4.12404 
15.5507 11.9823 3.97128 
20.82 12.1804 3.88094 
22.7549 12.1274 4.07825 
24.1933 12.452 3.92723 
24.8551 12.1958 3.99506 
25.2305 12.3793 3.91866 
26.0148 12.0719 3.9274 
22.064 13.1975 3.59345 
22.7538 12.6399 3.7516 
23.1125 12.6119 4.06246 
24.6378 13.0313 3.58387 
18.2754 8.05774 4.51089 
26.8587 8.00136 4.73525 
36.9343 8.35789 4.60925 
18.7261 8.85152 4.33232 
20.8886 8.74019 4.71945 
27.1031 8.72869 4.4377 
35.6333 9.01558 4.61143 
35.9156 8.86946 4.39528 
19.5676 9.57633 4.27147 
21.348 9.50537 4.4735 
22.9859 9.43097 4.72538 
24.1925 9.33908 4.64801 
26.4513 9.51424 4.34938 
27.3602 9.40163 4.32184 
31.3873 9.31775 4.38678 
31.6683 9.24395 4.60999 
32.3093 9.1333 4.63778 
34.6589 9.69703 4.61576 
17.8456 9.94043 4.28493 
20.427 10.295 4.26622 
22.1696 10.0833 4.4164 
23.4171 10.3211 4.37846 
27.7226 10.1745 4.35083 
33.125 10.3942 4.5701 
33.7207 10.3053 4.63179 
17.3407 11.1698 4.5373 
21.0814 10.8135 4.23223 
22.7649 10.9188 4.2813 
25.0768 10.7029 4.26866 
28.8515 10.9099 4.59263 
29.5648 10.9266 4.58855 
15.6835 11.9969 4.53359 
27.1992 12.2648 4.57767 
27.7189 11.994 4.51539 
20.4071 8.03241 5.36956 
26.0164 8.17014 5.46524 
26.9144 7.86363 5.31775 
24.0986 8.82281 5.5967 
24.9351 8.698 5.37607 
25.2341 8.85312 5.27239 
26.0285 8.47055 5.13892 
32.344 8.97699 5.36849 
17.4743 9.21149 5.46457 
22.9266 9.21277 5.40833 
23.2932 9.40163 5.24309 
24.2986 9.23101 5.26706 
32.3266 9.1399 5.17644 
33.0702 10.4122 5.20815 
33.7263 10.2982 5.26764 
29.5998 10.7717 5.31087 
27.2384 12.2689 5.21378 
27.4527 12.1383 5.3606 
14.2086 12.7705 5.05051 
26.6349 6.82421 6.10286 
21.7659 7.52594 6.21589 
24.8673 7.59648 6.16525 
25.6856 7.22971 6.12873 
26.8257 7.42593 5.79762 
22.0393 7.97421 6.05126 
23.7072 8.04985 6.17893 
25.0221 8.0417 5.85607 
25.6762 7.91334 5.73727 
17.3878 8.9343 5.97651 
22.739 8.77363 5.7001 
24.0784 8.49439 5.81873 
32.3608 8.97609 5.87788 
31.6368 9.32138 6.03456 
34.5488 9.69403 6.00356 
29.5485 10.0535 5.92901 
17.6419 10.8056 5.96149 
29.0387 10.795 5.93031 
15.7683 11.6213 5.86937 
27.3628 11.8039 6.21091 
27.4155 12.0174 5.91244 
24.2918 6.81399 6.81153 
25.508 6.61493 6.56387 
26.5591 6.52451 6.35389 
23.3392 7.33941 6.68617 
24.598 7.27148 6.44975 
27.0467 7.45713 6.87061 
32.5093 7.26739 6.85999 
32.4544 7.95131 6.60409 
17.3322 8.7504 6.76015 
31.6435 8.61461 6.80545 
32.3992 8.66956 6.40897 
28.8947 9.51631 6.89421 
29.4965 9.70013 6.70973 
31.6431 9.21143 6.61548 
29.5401 9.83049 6.37125 
30.3229 9.95247 6.6615 
15.8475 11.1201 6.94878 
29.1443 10.7103 6.67998 
15.8309 11.2599 6.5377 
14.3199 12.2488 6.57252 
14.9179 12.2407 6.76511 
25.0227 5.34202 7.46465 
32.7384 5.18969 7.63407 
24.0331 6.01709 7.3618 
25.2525 5.98439 7.02891 
26.5198 6.01622 7.24016 
32.6204 5.86705 7.34665 
22.9029 6.55262 7.1733 
26.7425 6.37887 7.61214 
32.5724 6.47361 7.13892 
33.5093 6.48957 7.69389 
38.4553 7.20984 7.42086 
39.4219 7.48571 7.44769 
37.9115 8.01143 7.23167 
30.9506 8.99687 7.40663 
31.6708 8.5628 7.2804 
28.9136 9.5376 7.4392 
29.6024 9.66027 7.41577 
34.5251 9.59239 7.37905 
17.7959 10.3042 7.31372 
30.3657 9.90039 7.40066 
16.021 11.0494 7.37594 
33.1544 10.5361 7.37805 
15.0783 12.0978 7.37989 
23.9561 5.3394 7.84699 
26.315 5.37169 8.24296 
26.6581 6.04382 7.89463 
33.5998 5.87667 7.92872 
34.5667 6.50902 8.31841 
38.6879 6.77568 7.85613 
34.5413 7.19737 8.09842 
35.0923 7.47537 8.34664 
39.0367 7.51726 8.12298 
31.7151 8.73811 8.01497 
34.7914 8.72822 7.78334 
36.2746 8.80104 8.13408 
36.5937 8.63557 7.9008 
29.0162 9.58162 8.11421 
29.6645 9.75758 7.98473 
33.233 10.1261 7.80495 
16.275 10.9459 8.00123 
15.172 12.0763 7.99113 
26.0678 4.56741 8.60732 
32.688 4.9951 8.69495 
33.7068 4.96497 8.585 
39.3407 5.33575 8.77701 
34.6477 5.80569 8.62221 
35.2719 6.87835 8.72093 
35.6599 8.36027 8.433 
16.4817 8.85477 8.84405 
31.7781 8.77025 8.70764 
30.6123 9.71156 8.88241 
17.7072 10.0476 8.67806 
29.8509 9.89109 8.64162 
30.447 9.90759 8.6642 
17.1504 11.0703 8.81833 
15.1417 11.7091 8.80678 
37.5513 3.27304 9.67645 
34.8171 4.02176 9.39767 
35.1578 3.81967 9.36391 
37.5412 3.73688 9.3458 
33.8436 4.63681 9.37037 
32.6495 5.06255 9.37265 
39.3614 5.06702 9.34369 
31.7703 8.11176 9.35685 
16.3976 8.72457 9.44293 
29.0885 9.39827 9.43053 
17.3513 10.9629 9.59111 
15.1971 11.5376 9.44707 
35.2099 3.28023 10.2572 
37.5622 3.16941 10.074 
35.0727 3.51105 9.9088 
33.8136 4.42471 10.0776 
38.2101 4.59146 10.2251 
32.7669 4.91296 9.82241 
16.3175 8.57274 10.1325 
29.1484 9.34391 10.1428 
24.8679 0.178453 10.7905 
35.1419 3.2731 10.8676 
38.2149 4.38982 10.7945 
16.3223 8.05967 10.8153 
29.0671 8.93992 11.0057 
29.2606 9.22491 10.762 
29.951 9.40085 10.8901 
17.6689 10.6596 10.7407 
15.6078 11.2864 10.6883 
38.31 3.93372 11.505 
39.5355 4.06966 11.8896 
31.9473 4.62353 11.4368 
32.724 4.58702 11.6361 
33.7989 4.26288 11.5136 
16.3503 8.00214 11.6202 
29.2179 8.79388 11.426 
29.8329 8.92931 11.6469 
30.0236 9.15329 11.4058 
15.9427 11.0545 11.7011 
14.9252 12.1516 11.5855 
35.0156 3.56305 12.335 
31.9577 4.67964 12.225 
32.7143 4.70291 12.3153 
33.8569 4.33906 12.1496 
16.4617 7.82218 12.2908 
29.8107 8.08549 12.3956 
29.8081 8.56149 12.0627 
30.4739 8.44565 12.1026 
16.2528 10.9654 12.2841 
15.0317 12.0699 12.2103 
34.8961 3.81071 13.0245 
31.0516 4.56883 12.8505 
31.9269 4.81699 13.0432 
32.8181 4.7998 13.0056 
29.9814 8.18095 12.9622 
16.3593 10.8621 12.6899 
17.299 10.9399 12.9316 
31.104 4.78431 13.3915 
33.7883 4.72818 13.5244 
31.1289 4.90435 13.673 
31.9389 5.03593 13.6668 
32.8254 4.99693 13.6401 
30.1877 8.27785 13.6368 
16.3785 8.77396 13.6996 
17.2972 10.9274 13.5072 
15.1577 11.5771 13.6059 
30.2371 4.05342 14.3268 
34.7719 3.74703 14.4844 
31.8398 4.64669 14.3652 
33.8258 4.3453 14.376 
30.2349 8.26229 14.2533 
17.4823 10.7909 14.0906 
15.2561 11.4298 14.2112 
15.5749 11.3976 14.5421 
34.8722 3.46185 14.8755 
31.9273 4.64001 14.9918 
33.0842 4.59442 14.9909 
17.556 10.5677 15.0086 
32.0385 4.7867 15.7347 
17.6455 10.2511 15.8014 
30.3754 3.8242 16.5288 
32.1501 4.40638 16.6738 
14.5077 12.1077 16.5834 
30.4426 3.77976 17.1942 
31.3695 4.20325 17.2534 
32.3523 4.36583 17.017 
16.2463 7.93505 16.9435 
14.2422 10.0817 17.2094 
16.6464 10.8927 17.0506 
17.1701 10.7567 17.2855 
14.8647 11.9208 17.3171 
35.1662 2.46667 17.7702 
30.4787 3.64804 17.8562 
31.2132 4.0011 17.8717 
32.5477 4.11722 18.0606 
17.0415 10.8122 17.6896 
15.2055 11.7476 17.8053 
32.4376 3.9004 18.7026 
17.3012 10.783 18.3193 
31.475 3.6066 19.115 
33.3128 3.58498 18.9678 
16.6944 8.64327 19.1275 
31.2353 2.69267 20.1765 
32.3563 3.32003 19.7739 
33.2197 2.96589 19.9557 
15.9903 8.00422 19.9328 
16.4015 11.0142 20.1697 
32.438 1.9941 21.3611 
32.5447 1.60314 22.2465 
16.5159 10.1884 22.1543 
16.1978 9.97979 23.1212 
15.7917 9.6057 24.2931 
15.6732 9.36555 25.3045 
33.7501 10.2725 0.96176 
32.8263 10.6805 1.10474 
26.7664 12.9372 1.25749 
26.2014 13.5846 1.22441 
32.0616 10.9908 1.87059 
32.8183 10.6935 1.8493 
27.22 12.273 1.69806 
26.8478 12.8809 1.82292 
26.3364 13.4903 1.82026 
22.5862 14.1578 1.7407 
36.9712 8.5986 2.48441 
37.1657 8.54435 2.20956 
32.7439 10.7631 2.4341 
28.027 11.9103 2.41455 
25.4357 14.2012 2.47901 
41.817 4.80641 3.41431 
41.5411 5.40254 3.25547 
30.6611 10.0904 3.44301 
31.4119 10.0472 3.3824 
30.5988 10.922 3.28671 
31.4235 10.6937 3.26984 
32.8434 10.7312 3.05017 
28.9113 11.4114 3.08477 
15.2478 12.2205 3.22498 
27.5463 12.1274 3.16987 
19.174 12.7861 3.17662 
26.3373 12.8878 3.19704 
27.0427 12.8903 2.92696 
23.6626 13.5202 3.11824 
25.0037 13.5196 3.38893 
25.3566 13.8562 3.18857 
38.5828 7.69303 3.84504 
35.8101 8.95817 3.79856 
32.9542 10.3668 3.91246 
28.4509 11.0074 3.80771 
28.7981 10.9876 4.09103 
17.0313 11.2623 3.92939 
24.7552 11.592 4.12046 
25.654 11.5934 4.08795 
15.5123 12.0003 3.9626 
24.8698 12.0656 4.01127 
25.9944 12.0896 3.90174 
22.0731 13.1767 3.60179 
22.8869 12.6497 3.74235 
20.0538 8.04986 4.55967 
38.3481 7.82269 4.60012 
20.925 8.89227 4.63019 
35.6727 8.99658 4.67309 
21.4512 9.58185 4.46764 
31.4423 9.29421 4.29548 
31.5705 9.26676 4.61801 
26.7473 10.1563 4.24089 
27.728 10.2364 4.36898 
32.9894 10.3925 4.58994 
28.8085 10.8767 4.62547 
27.5159 11.4446 4.61857 
27.1798 12.2758 4.61126 
20.3929 8.08944 5.37407 
24.9981 8.59692 5.41426 
23.199 9.41298 5.20182 
31.578 9.36924 5.3228 
30.1663 10.0756 5.21546 
32.9602 10.4109 5.21791 
17.5919 10.9868 5.36194 
28.9549 10.9263 5.29125 
16.016 11.9565 5.00783 
27.263 12.2616 5.1671 
27.3727 12.1736 5.41538 
24.801 7.63107 6.16263 
22.1381 8.01491 6.0635 
24.9672 8.11031 5.82938 
17.409 8.99307 5.95754 
32.9656 10.4188 5.92469 
29.5736 10.626 5.76843 
15.8595 11.5475 5.91569 
27.3771 12.0307 5.92767 
25.468 6.56813 6.60545 
39.4282 7.44859 6.87391 
38.0591 7.88281 6.59379 
28.5818 9.17954 6.59692 
14.4716 12.3292 6.5179 
14.8475 12.2753 6.83714 
32.7051 5.2075 7.60648 
22.9601 6.64224 7.13463 
39.3578 7.51378 7.47753 
34.4955 9.60709 7.38199 
17.8112 10.3947 7.30433 
23.8897 5.4072 7.84191 
26.4173 5.47372 8.21318 
39.3571 5.2995 8.20184 
39.0795 7.5689 8.21099 
35.5034 8.98471 8.13468 
36.3321 8.77368 8.19035 
28.9629 9.57036 8.13152 
30.4109 9.86007 8.02789 
33.2051 10.1071 7.78443 
33.5096 10.5896 8.03627 
33.729 4.95121 8.63706 
34.6161 5.80923 8.57782 
35.796 7.96974 8.80142 
31.762 8.82004 8.71231 
30.5543 9.68893 8.96771 
24.5884 0.306251 9.47906 
34.8952 4.00517 9.46094 
29.1067 9.41213 9.44905 
24.7128 0.282172 10.1981 
35.15 3.3408 10.2722 
38.1955 4.57299 10.2631 
39.2813 4.78057 10.802 
29.1711 9.01619 11.0465 
31.2155 8.84815 10.827 
30.6157 9.31672 10.8128 
15.7644 11.1822 11.0272 
31.9013 4.59954 11.4125 
32.811 4.55656 11.6888 
33.8438 4.23033 11.4541 
29.2386 8.84738 11.3994 
14.8392 12.1997 11.6032 
29.8911 8.23478 12.3941 
29.8992 8.61055 12.0514 
34.937 3.77874 13.0445 
32.8597 4.80629 13.0384 
15.049 11.9855 12.9615 
15.1268 11.6409 13.5762 
30.1823 4.02752 14.3197 
34.8787 3.62979 14.5135 
15.5378 11.4087 14.5732 
33.0005 4.60483 15.0059 
17.5645 10.5456 14.9759 
30.3997 4.2406 15.5909 
17.697 10.2704 15.7964 
15.8362 11.2849 15.453 
35.0644 3.01081 16.5169 
17.3399 9.93647 16.4701 
14.1588 10.0885 17.2247 
17.0703 10.8116 17.3379 
30.4764 3.66906 17.7817 
15.9587 7.41811 17.6817 
17.0845 10.786 17.7569 
30.4825 3.43477 18.3759 
32.3724 3.87684 18.7799 
33.1714 3.9498 18.2578 
17.0165 9.17141 18.276 
17.7015 10.629 18.5157 
15.7084 11.5839 18.6236 
33.2333 3.62109 18.9699 
17.157 10.1759 19.4378 
15.9121 11.4219 19.3783 
31.3676 2.71319 20.2355 
33.2308 2.9289 20.0108 
16.0187 8.05764 20.0308 
16.3652 11.0654 20.2294 
17.0579 9.6519 20.8259 
16.5421 10.9733 20.7867 
16.4607 10.333 22.173 
32.5416 1.52837 22.935 
32.5611 1.53704 23.6744 
16.1918 10.0506 23.1122 
31.6982 1.02056 24.2647 
15.8094 9.63933 24.2485 
32.6283 1.51621 24.5806 
28.3616 11.7335 1.25283 
30.0599 12.1608 0.975421 
14.3284 12.8775 1.37198 
25.6243 14.0488 1.04039 
38.0422 7.91298 1.82742 
33.8317 10.219 1.83951 
29.1467 11.5399 1.64897 
29.4074 11.5232 1.8795 
31.2 11.4206 1.71256 
27.1232 12.3921 1.82864 
29.9104 12.0525 1.74367 
14.3137 12.6954 1.82911 
22.2543 14.281 1.83357 
24.8941 14.2302 1.70446 
15.8074 11.8087 2.40829 
29.0978 11.5345 2.45947 
29.5321 11.5485 2.43313 
31.2322 11.4586 2.31703 
14.354 12.4985 2.63788 
27.1085 12.3961 2.51897 
30.0012 12.138 2.66167 
30.3973 11.983 2.46171 
14.3375 12.6083 2.3906 
26.8264 12.9341 2.36018 
22.6188 14.1636 2.45564 
25.1248 14.2638 2.43305 
41.6428 6.02309 3.23771 
31.9212 9.63831 3.39262 
29.9528 10.3323 3.47081 
32.5628 10.0079 3.27686 
34.3444 9.83136 3.20824 
17.4282 11.1092 3.49308 
28.9008 11.0685 3.42479 
31.9465 10.9018 3.17711 
16.0406 11.7947 2.93815 
16.1847 11.752 3.41234 
29.7984 11.5585 3.16926 
15.0009 12.3494 3.24276 
19.4814 12.3038 3.3904 
19.7565 12.509 3.2009 
25.8815 12.5763 3.47269 
26.1937 12.301 3.33223 
27.0386 12.4161 3.20598 
27.6246 12.1109 3.24197 
18.1328 12.7305 3.10961 
18.8201 13.055 3.09243 
19.981 12.9322 3.08373 
22.9341 12.7761 3.38881 
23.4136 12.9283 3.26771 
24.07 13.0777 3.37695 
26.8633 12.954 3.01222 
20.5023 13.6865 3.09341 
21.2491 13.6156 3.33834 
22.7663 13.5651 3.24894 
24.8413 13.6579 3.31216 
21.4452 14.2199 3.10777 
22.7092 14.1284 2.97392 
27.8462 8.09532 3.95237 
27.8821 8.6004 3.80439 
36.097 8.79402 3.76867 
28.1368 9.64457 4.19468 
31.4494 9.35569 3.74246 
31.7086 9.22516 3.93128 
32.2743 9.19452 3.81622 
18.1101 10.0858 4.05973 
18.3276 10.3355 3.92904 
32.7291 10.0024 3.95248 
17.4736 11.0325 3.8931 
19.1871 10.9326 3.93306 
27.741 10.8527 4.03745 
28.3069 11.0203 3.86385 
33.1852 10.5961 3.96143 
16.2203 11.6714 3.83212 
18.4801 11.682 3.59367 
19.8574 11.5273 3.97065 
20.3359 11.6056 4.05554 
21.546 11.3368 4.17623 
21.9882 11.7218 4.11515 
22.9234 11.5735 4.16281 
23.5738 11.5069 4.17423 
24.2088 11.5279 4.15605 
25.5136 11.5687 4.1027 
26.1745 11.6963 4.04963 
27.7433 11.3803 3.73384 
14.946 12.344 3.9289 
19.142 12.0674 3.55922 
21.4287 12.32 3.96429 
22.2453 12.2611 4.07065 
22.6871 12.2589 4.08794 
23.5259 12.0548 4.06228 
24.1202 12.363 4.0007 
24.7961 12.2757 4.02381 
25.532 12.2771 3.85029 
22.0789 12.9861 3.68339 
24.8674 12.9716 3.63182 
25.4833 12.8247 3.61117 
19.257 8.13668 4.45546 
26.4022 8.20773 4.67643 
27.0787 8.0165 4.66702 
27.9641 8.10316 4.403 
28.0454 8.12853 4.70216 
18.5564 8.81688 4.36292 
19.8217 8.53436 4.43765 
25.6643 8.59256 4.64381 
26.3666 8.68979 4.51704 
27.328 8.90693 4.38716 
17.7965 9.73351 4.54732 
18.8839 9.23466 4.23476 
20.5538 9.23201 4.4431 
21.2818 9.6804 4.4365 
22.0512 9.32691 4.64208 
23.2819 9.48467 4.60571 
24.2078 9.34062 4.62898 
26.8081 9.41538 4.35513 
27.3795 9.34063 4.32495 
31.026 9.49096 4.48095 
32.4031 9.16369 4.60171 
19.6834 9.87981 4.24112 
20.388 10.3588 4.24747 
21.6133 10.2699 4.37018 
22.8112 10.282 4.39049 
23.5594 10.1172 4.41674 
24.1489 10.06 4.40715 
26.8442 10.1286 4.23767 
30.1613 9.98494 4.57224 
32.7856 10.12 4.53327 
17.7604 10.9774 4.53867 
20.9256 10.8957 4.2084 
22.2011 10.8631 4.27988 
23.401 10.9976 4.26076 
24.9867 10.6823 4.27438 
15.0897 12.312 4.654 
16.4548 7.16885 5.13129 
26.4546 7.5915 5.57189 
26.3904 8.11521 5.27162 
27.0889 7.88572 5.16391 
27.3658 7.87725 5.41705 
38.3625 7.79125 5.1423 
21.9228 8.87096 5.43718 
23.222 8.97713 5.50557 
25.0285 8.69979 5.36977 
25.5995 8.66653 5.14169 
28.3224 8.89286 5.33734 
22.0776 9.25918 5.32562 
23.3617 9.39835 5.22471 
32.4556 9.25815 5.24317 
34.752 9.5993 5.19463 
32.8494 10.2537 5.1909 
16.5536 11.5903 5.20695 
15.0915 12.34 5.21069 
26.3672 6.79542 6.17468 
26.4374 7.26368 5.88722 
21.2569 7.93015 5.79356 
22.8012 8.14297 6.12281 
27.4916 7.81734 5.93573 
17.4035 9.01433 6.00283 
21.9184 8.5085 5.72712 
22.8389 8.5956 5.82741 
23.467 8.62462 5.79929 
24.0679 8.54945 5.78689 
28.423 9.03245 5.64636 
32.1022 8.66581 5.91938 
17.3849 9.13407 5.66944 
28.6025 9.38501 6.13907 
32.5515 9.62132 5.97717 
35.1751 9.35514 6.05964 
29.8033 10.0351 5.93331 
32.8951 10.3572 5.68043 
33.6563 10.3745 6.04605 
16.3219 11.1702 6.19964 
16.4377 11.3061 5.84633 
27.3761 11.7803 6.18651 
15.0302 12.1926 6.00075 
27.0216 12.1463 5.99205 
25.3325 6.28388 6.80299 
26.2769 6.03734 6.72364 
23.4421 6.93205 6.95208 
24.4068 6.80401 6.78841 
23.5401 7.39558 6.63171 
24.6109 7.28862 6.43928 
22.604 7.78843 6.3296 
27.6409 7.73516 6.56113 
32.3366 8.53934 6.40979 
36.6955 8.5989 6.55261 
28.7834 9.51248 6.77638 
31.2795 9.41757 6.62038 
32.621 9.67604 6.42395 
17.8004 10.3349 6.76529 
29.8231 10.0184 6.57318 
33.0935 10.4389 6.51254 
16.2722 11.0175 6.75878 
33.0358 10.5742 6.75388 
23.1791 6.16292 7.47559 
24.1441 5.95272 7.378 
26.3963 5.83521 7.25755 
27.4076 6.07544 7.12846 
24.3739 6.47645 7.01275 
32.7288 6.62368 7.18703 
33.2694 6.44071 7.56467 
27.7627 7.6869 7.05508 
32.7488 7.13626 7.04844 
36.8083 8.50876 7.21583 
29.5913 9.65717 7.34449 
31.0158 9.43896 7.25229 
31.5922 9.26367 7.43009 
34.4928 9.42395 7.47346 
32.7278 9.9167 7.38986 
16.2996 10.898 7.3294 
33.079 10.629 7.41285 
15.1372 11.722 7.3303 
24.8736 4.81194 7.83691 
33.4404 5.30392 8.00465 
23.1909 5.79664 8.22342 
26.5976 6.01512 7.89486 
34.2881 6.04147 8.29505 
33.9641 6.5582 7.94708 
38.569 6.64063 7.845 
34.589 7.32017 8.09033 
16.4982 7.94858 8.0783 
28.1415 8.15212 8.04287 
31.9212 8.14715 8.07545 
35.3416 8.15648 8.29196 
28.4407 8.90347 8.24297 
31.7464 8.63317 7.87599 
35.5804 9.02337 8.22786 
32.899 9.6744 7.8164 
33.1065 9.58755 7.93595 
30.3776 9.88498 7.98787 
16.3293 10.8969 7.85793 
17.1228 11.0928 8.14566 
35.1774 3.9107 8.69616 
26.207 4.33755 8.66339 
33.8506 4.57375 9.0276 
23.2115 5.71586 8.71396 
34.5543 5.71141 8.56709 
34.9774 6.87972 8.44989 
35.1766 6.81344 8.72459 
35.5752 7.60255 8.73016 
32.0436 8.03375 8.81158 
36.0518 8.85487 8.64715 
29.189 9.67049 8.81707 
30.0282 9.71104 9.07666 
17.221 11.0437 8.72826 
15.196 11.5692 8.8601 
24.8883 0.421016 9.31918 
35.2429 3.75051 9.29976 
37.6151 3.9499 9.29888 
33.9027 4.59414 9.44647 
38.5772 4.89905 9.48352 
40.1691 4.74254 9.37746 
31.4042 9.00891 9.59762 
28.8739 9.31011 9.50243 
29.6619 9.62392 9.44729 
31.2323 9.22736 9.28911 
37.7148 4.00683 10.0157 
33.9759 4.36088 10.0121 
16.4239 8.72762 10.1065 
29.7409 9.57893 10.1501 
30.3658 9.58402 10.1519 
17.5693 10.8154 10.1069 
25.572 0.26407 10.8422 
34.3885 4.02853 10.8722 
29.139 9.1884 10.6815 
30.475 9.38317 10.7728 
14.3166 12.1529 10.6527 
14.8131 12.236 10.8815 
25.6564 -0.275664 11.7641 
25.6319 0.0629658 11.2875 
34.5136 4.00157 11.5597 
32.4393 4.70435 11.6116 
33.254 4.58975 11.6078 
29.9755 9.16049 11.3903 
30.3801 9.13772 11.3281 
14.8291 12.213 11.5577 
25.6428 -0.77234 12.2867 
31.7352 4.6699 12.3432 
33.3181 4.60923 12.2631 
16.3514 8.00847 12.2562 
30.2852 8.24809 12.4503 
15.861 11.0846 12.0454 
16.1916 11.0083 12.4143 
32.7115 4.81763 13.0246 
17.7508 10.2438 12.97 
16.2941 10.9351 12.8076 
15.0635 12.0066 12.9521 
38.9001 3.29506 13.7503 
30.9719 4.79455 13.4941 
31.85 5.00123 13.5636 
32.7957 5.00192 13.6489 
16.4095 7.95825 13.6976 
29.7616 8.02149 13.7486 
16.2804 10.9014 13.5279 
15.1435 11.7679 13.6761 
15.0659 12.0251 13.5594 
39.0364 3.2178 14.3435 
32.9912 4.61483 14.3612 
29.843 8.12415 14.3096 
16.9885 9.55248 14.6103 
17.5932 10.1351 14.2252 
16.4065 10.8255 14.116 
17.2521 10.9451 14.346 
15.1367 11.6472 14.3806 
35.5925 2.57128 14.9431 
35.8075 2.23086 15.3225 
39.1305 3.35262 15.0014 
34.1862 4.11836 14.9672 
31.1875 4.52302 15.0243 
17.3768 10.8752 15.1178 
28.8125 2.4113 15.699 
34.6084 3.99164 15.8126 
30.0756 7.95019 15.4151 
17.4331 10.867 15.7038 
15.2341 11.5576 15.7193 
30.4269 3.86692 16.5095 
31.8373 4.37314 16.5162 
33.2709 4.2798 16.5229 
17.2919 10.7199 16.604 
30.5793 3.87786 17.1558 
33.7688 4.0053 17.1805 
31.7336 4.31453 17.0351 
32.5504 4.33371 17.1655 
15.4839 8.31831 16.8217 
15.883 8.70892 17.0983 
17.5261 10.6035 17.1714 
32.6476 4.10532 18.0835 
33.967 3.67663 18.0456 
17.6488 10.5501 17.6973 
31.1885 3.8248 18.3886 
31.8685 4.00779 18.3736 
33.1107 3.89386 18.4843 
17.7028 10.3794 18.435 
14.4064 12.2226 18.4437 
30.9679 3.32787 19.1891 
31.8728 3.67356 19.1198 
16.5767 11.0637 19.3309 
16.2723 11.2552 19.1209 
31.222 3.0054 19.8542 
32.3403 3.25907 19.865 
16.0182 7.95405 19.973 
17.037 9.94942 19.8818 
16.3409 11.0506 20.1681 
16.7852 9.4645 20.3647 
32.5486 1.88584 21.5123 
16.7448 9.34016 21.7662 
16.35 10.697 21.9648 
16.0722 10.4403 22.9152 
31.8373 1.16069 23.1664 
15.8149 10.0379 23.9814 
32.4786 1.5411 24.7681 
15.7191 9.98936 24.9685 
15.7773 9.86008 25.5665 
26.9471 12.7236 0.688048 
29.489 11.4975 1.33339 
31.057 11.4485 0.994755 
15.1199 12.5366 1.3298 
29.9773 12.1232 1.02516 
30.268 12.0616 0.977466 
26.0644 13.7549 0.997814 
22.5393 14.0281 1.0063 
36.0488 9.04987 1.70983 
32.0096 11.0108 1.73422 
28.3574 11.6892 1.81157 
29.6158 11.654 1.78824 
30.7203 11.6551 1.53551 
14.8555 12.5148 1.79978 
28.0331 11.9156 1.64757 
14.4326 12.6608 1.89139 
21.5551 14.3012 1.85156 
25.043 14.2399 1.72829 
25.5936 14.1398 1.64726 
33.467 10.4092 2.31048 
33.7937 10.2241 2.60604 
33.0829 10.6474 2.28371 
15.8837 11.7888 2.59331 
29.6145 11.6274 2.49589 
31.5868 11.2429 2.29871 
27.724 12.1239 2.46354 
29.9857 12.1395 2.51292 
31.2589 9.62201 3.45773 
31.87 9.54727 3.41586 
32.3765 9.61124 3.37356 
34.6569 9.68323 3.24105 
30.4857 10.2114 3.43746 
31.2042 10.2032 3.37004 
32.6005 10.0838 3.25776 
33.9103 10.1809 2.99948 
17.5084 11.0762 3.22069 
28.322 11.0805 3.30726 
28.9901 11.1087 3.39701 
32.9669 10.6206 3.26026 
16.0156 11.8253 3.06895 
17.4126 12.0339 3.07548 
18.7897 12.3647 3.40032 
19.8517 12.4441 3.19812 
26.2251 12.3491 3.31529 
29.9921 12.0619 3.07606 
19.2457 13.0148 3.10015 
20.0416 13.0548 3.07064 
22.8552 12.8391 3.4095 
24.1402 13.0754 3.40839 
20.6911 13.8087 3.10728 
22.106 13.6695 3.34013 
23.4447 13.6562 3.08394 
24.1996 13.7077 3.20101 
25.6005 13.6849 3.21207 
24.8314 14.2207 3.09422 
38.8703 7.61162 3.77577 
27.5803 7.99191 3.97496 
38.7467 7.77302 3.72131 
28.1973 8.81253 3.97329 
18.5763 9.56645 4.16739 
28.3005 9.51196 3.89336 
30.7506 9.69537 3.75759 
31.9127 9.16026 3.84391 
32.3622 9.25988 3.76262 
34.7567 9.61188 3.71093 
18.43 10.4325 3.92502 
27.8984 10.2736 4.12361 
28.1928 10.1991 4.04419 
30.0097 10.0782 3.79718 
17.3845 11.0991 3.76933 
19.8805 10.9542 4.10071 
20.5217 11.1603 4.12582 
25.4178 11.118 4.17644 
29.0032 11.0505 3.78306 
19.2765 11.5792 3.7482 
22.7641 11.6333 4.1461 
24.1209 11.5444 4.1541 
26.0413 11.7428 3.9985 
27.7662 11.3896 3.81092 
15.6874 11.9503 3.7946 
20.7014 12.0163 4.03308 
21.3422 12.1775 4.05632 
22.1753 12.2812 4.07217 
22.838 12.398 4.08206 
24.2163 12.2154 4.05206 
24.846 12.31 3.98915 
21.3362 12.7019 3.63368 
22.6359 12.8128 3.66769 
23.3926 12.6206 4.04433 
24.8807 13.0113 3.62363 
16.6141 7.44853 4.56691 
17.1117 7.60449 4.25249 
26.4381 8.19788 4.6987 
27.6122 7.93679 4.50126 
28.0368 8.15641 4.53988 
18.4923 8.65376 4.41067 
18.9743 8.74188 4.33344 
20.0145 8.479 4.47239 
20.9193 8.87565 4.58362 
25.009 8.92093 4.71936 
25.653 8.76487 4.59457 
26.963 8.66065 4.4567 
27.5077 8.99159 4.36484 
28.1143 8.48235 4.2172 
17.7517 9.40591 4.54161 
19.7661 9.14408 4.35464 
22.1355 9.52293 4.54605 
25.4281 9.30048 4.47007 
26.2629 9.35742 4.3944 
27.6618 9.44049 4.30036 
28.0589 9.76223 4.2159 
30.5254 9.74636 4.51356 
32.4435 9.23588 4.55863 
17.9705 10.1847 4.28377 
19.3988 9.90625 4.20084 
19.9118 10.0469 4.24001 
20.5829 10.4179 4.25478 
21.4424 10.0577 4.38634 
22.1063 10.2318 4.3925 
22.787 10.1246 4.4174 
24.1425 10.1418 4.39264 
25.2312 10.4156 4.29727 
27.5735 10.1391 4.33158 
17.2692 11.1828 4.36876 
18.267 10.6148 4.77806 
21.2078 10.7714 4.24882 
22.0704 10.9357 4.25935 
22.6948 10.7038 4.31867 
24.1384 10.7937 4.27166 
24.8017 10.8404 4.25147 
25.2034 10.9253 4.22909 
27.5242 10.848 4.42932 
28.6548 10.8071 4.4447 
22.6072 11.2118 4.2259 
27.5245 11.3949 4.37834 
15.6205 12.0169 4.44467 
27.5869 12.078 4.54277 
20.0828 7.47697 5.34116 
16.6918 7.78581 5.35862 
27.4027 7.86512 5.2184 
28.0403 8.26423 5.23937 
22.021 8.87791 5.46126 
25.4639 8.63724 5.23051 
32.0924 9.08433 5.44001 
32.3247 8.95179 5.41859 
24.5046 9.21977 5.17268 
28.7429 9.72244 5.58513 
31.1523 9.55815 5.2811 
31.9302 9.21107 5.24591 
30.385 9.96062 5.32201 
32.7586 10.0671 5.24203 
33.1415 10.4148 5.18265 
17.9516 10.7315 5.41264 
16.6526 11.4663 5.34144 
17.1418 11.352 5.07026 
27.624 11.6864 5.37831 
15.2075 12.2563 5.25531 
15.8271 12.0586 5.00926 
26.3907 6.85781 6.13167 
24.8335 7.4969 6.23202 
25.5172 7.38688 6.09461 
26.2107 7.40072 5.876 
26.7397 7.50837 5.72203 
27.8768 7.6421 6.02068 
16.6163 7.97107 5.89825 
22.6211 8.23483 6.03711 
23.4526 8.14894 6.12438 
24.1302 8.1477 6.0422 
28.0378 8.3069 5.79658 
21.4438 8.45353 5.61589 
22.8832 8.65909 5.78802 
23.5668 8.56416 5.84207 
23.9643 8.61147 5.76428 
24.555 8.51634 5.71887 
32.0326 8.54233 6.07953 
17.2614 9.27988 5.87882 
28.7194 9.58372 5.95173 
31.5544 9.39041 6.05996 
32.5355 9.5948 6.01227 
32.8106 10.1833 5.89298 
33.0284 10.4564 5.76793 
33.8909 10.1959 5.79739 
17.7453 10.6755 6.01285 
29.0767 10.8052 5.88873 
16.369 11.3217 5.88011 
27.4338 11.6469 5.9429 
14.9984 12.2104 5.85665 
26.0835 5.99072 6.77262 
24.7583 6.71731 6.72806 
26.2787 6.45555 6.41264 
27.5546 6.35561 6.92815 
22.2091 7.2608 6.54064 
22.6243 7.45179 6.53542 
27.8554 7.60958 6.63586 
32.4448 7.46357 6.75001 
16.4903 7.97977 6.67438 
22.776 7.8237 6.32492 
23.8589 7.79943 6.31905 
27.429 7.83553 6.63341 
32 8.14586 6.56963 
32.593 8.02892 6.66968 
32.9754 8.26273 6.85019 
37.5406 8.13967 6.57885 
32.5698 8.74958 6.52009 
16.939 9.36952 6.62899 
29.0209 9.52099 6.83518 
32.6054 9.57581 6.56016 
34.7541 9.55287 6.53616 
29.8353 9.91144 6.53716 
32.7535 10.0438 6.70302 
17.7086 10.7073 6.61824 
15.723 11.3126 6.6267 
14.879 12.2433 6.53811 
24.0603 5.43885 7.60681 
24.8705 5.29092 7.5315 
25.6847 5.29732 7.29536 
27.2688 5.20784 7.66703 
27.3471 5.52263 7.46754 
24.2224 5.97913 7.33542 
24.9806 5.86606 7.16448 
27.4365 5.98428 7.1664 
23.5503 6.49037 7.21891 
24.5252 6.37836 7.01113 
26.9136 6.65501 7.46027 
32.7961 6.62506 7.22564 
33.3634 6.70504 7.54186 
33.6195 6.70135 7.69718 
27.8136 7.68798 7.05824 
33.2379 7.38671 7.26414 
33.8014 7.36636 7.60478 
38.6737 7.56063 7.3992 
27.33 7.83994 7.14426 
33.356 7.97529 7.15578 
33.8994 7.91055 7.49852 
34.4261 8.45276 7.65295 
17.508 9.71494 7.234 
28.6912 9.47056 7.33323 
29.6382 9.67976 7.30031 
30.7138 9.48983 7.3255 
31.1829 9.3709 7.35665 
32.616 9.69722 7.35464 
29.8865 9.84045 7.59661 
32.7514 10.0661 7.26884 
33.0736 10.3277 7.4759 
17.6342 10.8135 7.29924 
33.1157 10.6815 7.32056 
15.2562 11.5142 7.44539 
14.3218 12.2514 7.21518 
27.0118 4.17774 8.34851 
26.112 4.7812 8.26001 
27.1095 4.57144 8.10945 
26.4051 5.17031 8.17188 
27.1918 4.90051 7.882 
33.6709 5.11729 8.27122 
34.1486 5.97405 8.23008 
34.4706 6.71041 8.20265 
34.0918 7.21548 7.82595 
38.9753 7.47519 8.03114 
34.7679 8.15765 7.94031 
35.173 8.0028 8.23639 
35.4471 8.66825 8.21739 
28.6866 9.46314 7.99857 
32.868 9.68519 7.77573 
35.7232 9.11737 8.22885 
29.8923 9.84852 8.09977 
33.1722 10.1945 7.83689 
17.3449 10.9771 8.0699 
33.3973 10.5787 7.989 
15.1867 11.5615 8.17446 
36.4825 2.48287 8.66817 
35.2248 3.84648 8.72907 
26.1626 4.31902 8.70827 
38.0521 4.67219 9.00472 
34.6316 5.5099 8.50652 
34.8915 6.67869 8.45811 
35.1115 6.68574 8.77729 
35.8025 8.10862 8.74656 
28.6651 9.51147 8.58527 
28.9654 9.63659 8.7485 
29.6917 9.71632 8.92181 
26.0884 0.360484 9.58467 
37.5161 3.2066 9.49344 
35.2841 3.82902 9.49135 
32.7968 5.08012 9.55461 
16.2741 8.23434 9.51848 
28.5554 8.75913 9.56726 
31.6009 8.7164 9.35241 
28.6679 9.47568 9.18224 
30.9516 9.42105 9.42935 
16.2828 10.9518 9.46425 
17.2682 11.0121 9.37187 
15.1571 11.6291 9.34629 
26.065 0.314478 10.1458 
37.5588 3.22349 10.0897 
17.7174 10.2373 10.1727 
16.2491 10.976 10.1526 
15.2141 11.7093 10.0277 
24.779 0.184137 10.7176 
25.9993 0.108359 10.9233 
37.6752 3.20215 10.6356 
37.8492 3.03546 11.0236 
34.2023 4.07513 10.7929 
39.4012 4.74788 10.8227 
29.8291 9.37886 10.8761 
31.0036 9.1737 10.6093 
15.8421 11.1132 11.0371 
16.1508 11.0446 10.6712 
15.0523 12.0797 10.7725 
25.9118 -0.204785 11.551 
34.3964 4.08642 11.5432 
38.5997 4.07971 11.6721 
33.2103 4.57339 11.5937 
29.1467 8.80285 11.361 
30.4383 8.906 11.6156 
30.0351 9.17886 11.3625 
25.6777 -0.866997 12.4003 
25.8058 -0.610967 12.0259 
34.5497 4.00736 12.3013 
32.4422 4.74547 12.4559 
29.7649 8.1884 12.3823 
16.3921 8.84406 12.3672 
29.8058 8.64792 11.9952 
30.3674 8.49029 12.1094 
39.1237 3.62023 12.8988 
32.4342 4.81838 12.9783 
33.2152 4.72186 12.9975 
34.4366 4.22401 13.083 
17.5688 10.7358 12.8543 
15.6045 11.3018 12.9044 
14.3642 12.1466 12.8731 
25.7167 -1.0872 13.7112 
34.4898 4.37682 13.5803 
31.2693 4.94729 13.6427 
16.4738 7.87358 13.5616 
30.2791 8.23248 13.6497 
25.4626 -0.932407 14.2712 
33.2853 4.59902 14.3677 
16.4353 7.91607 14.3593 
29.7369 8.11733 14.1917 
17.4454 9.84669 14.337 
29.8201 3.65566 15.0674 
32.4752 4.6837 14.9831 
17.2593 10.946 14.9995 
28.6232 1.78925 15.6559 
16.6076 10.9219 15.5225 
29.757 3.29159 16.3954 
33.8611 4.04389 16.3808 
31.7346 4.36204 16.5576 
15.0807 11.6842 16.4993 
16.4592 8.601 17.4042 
15.722 11.0058 17.2937 
16.4177 11.0033 17.24 
34.0332 3.62951 18.0401 
17.5964 10.5557 17.7937 
16.2374 11.213 17.8481 
14.739 11.9807 17.8578 
14.8838 12.0404 18.3411 
17.0179 9.25283 19.2914 
17.1112 10.6177 19.1815 
31.0974 2.94851 19.8197 
33.2411 3.07704 19.8259 
16.8314 10.575 19.8767 
15.9219 11.417 19.9219 
16.6662 10.7899 20.7242 
15.8413 11.4211 20.6511 
16.769 9.43195 21.7384 
15.7294 9.4655 25.3297 
31.1368 11.4236 0.684512 
27.5629 12.1058 0.696144 
29.8895 12.104 0.645523 
26.4105 13.222 0.683028 
28.3556 11.7457 1.16563 
29.6289 11.6301 1.23993 
36.8777 8.60427 1.84521 
32.5658 10.7813 1.98877 
28.3993 11.6828 1.74494 
29.6548 11.6836 1.91765 
26.5337 13.2031 1.90153 
26.7852 12.9304 1.82832 
22.2234 14.2975 1.79373 
34.713 9.6249 2.32626 
32.0673 11.0084 2.33785 
32.5841 10.7973 2.23695 
29.1395 11.4732 2.35261 
15.554 12.0124 2.40495 
27.1073 12.4118 2.39122 
26.7663 12.9692 2.60615 
25.6331 14.1157 2.36784 
32.4186 9.59911 3.36029 
31.1261 10.1572 3.38564 
33.0147 10.6372 3.25349 
17.0268 11.3223 3.26393 
28.3635 11.5325 3.20883 
31.1081 11.4338 3.21672 
18.6328 12.3301 3.38472 
19.3024 12.3233 3.41173 
19.8073 12.3229 3.28288 
20.5939 12.2727 3.32653 
21.1294 13.0254 3.4987 
22.9322 12.943 3.34689 
20.6066 13.7699 3.09348 
24.2428 13.6228 3.24193 
21.9182 14.2646 3.07535 
22.5691 14.0818 3.05265 
24.3541 14.0568 3.11135 
25.4569 14.1089 3.09603 
27.717 8.00401 3.96029 
28.1405 8.78579 3.87157 
31.9589 9.0808 4.01189 
17.8537 9.43373 4.18732 
18.5406 9.62091 4.15492 
31.1899 9.47787 3.78593 
31.7799 9.20674 3.79334 
32.4122 9.37372 3.83811 
34.8237 9.56857 3.79019 
35.1419 9.45883 4.00227 
19.4015 9.97757 4.18751 
28.2506 10.2116 3.97564 
30.392 9.90034 3.74661 
32.8064 10.124 3.85985 
32.9635 10.4195 3.75701 
18.4618 10.6248 4.06113 
19.3444 10.8662 4.01442 
20.0085 10.9333 4.11651 
20.6125 11.086 4.14385 
21.2339 11.1077 4.1983 
27.2045 10.6806 4.09253 
16.5129 11.5176 3.95039 
17.0124 11.2958 3.77646 
19.8531 11.6047 4.0135 
20.5444 11.6996 4.07125 
21.3806 11.5974 4.12513 
14.8582 12.4157 3.76105 
22.1557 12.4101 4.05374 
14.4784 12.6125 4.13538 
22.607 12.8509 3.59185 
24.1033 12.685 3.59944 
16.3303 6.82694 4.75703 
18.3409 7.44885 4.4041 
17.2222 8.26542 4.61275 
19.9553 8.1623 4.51688 
26.3192 8.25732 4.69072 
27.5709 7.961 4.59178 
38.6783 7.73498 4.64495 
18.0747 8.63853 4.50409 
18.5277 8.70339 4.39109 
19.0569 8.83164 4.31806 
20.7422 8.73814 4.5516 
21.4259 8.9872 4.55064 
25.5992 8.7722 4.62433 
28.3332 8.72376 4.50347 
19.841 9.17521 4.35915 
20.5534 9.41127 4.41209 
22.7876 9.49192 4.57795 
23.4306 9.50201 4.59651 
24.2379 9.42612 4.60571 
24.8104 9.38586 4.50861 
25.4944 9.47082 4.43109 
26.2463 9.42207 4.38517 
28.2368 9.48641 4.28254 
31.7919 9.20541 4.56464 
17.9436 9.9946 4.58364 
24.8274 10.1535 4.36276 
25.2759 10.2791 4.31227 
26.2586 9.91294 4.31459 
33.1262 10.4135 4.6039 
18.0282 10.8325 4.55853 
21.5094 10.8208 4.25994 
22.063 10.7733 4.29021 
24.2078 10.8583 4.26113 
28.6506 10.7131 4.55158 
29.5657 10.9215 4.60854 
33.1789 10.5819 4.39179 
16.4416 11.6471 4.58164 
22.5277 11.2558 4.21513 
27.6015 11.5314 4.32707 
16.3631 7.11651 5.3022 
26.6804 7.66115 5.50767 
39.3474 7.47509 5.10104 
20.2343 7.83022 5.24367 
27.6219 7.90535 5.25783 
28.0549 8.30944 5.41459 
17.4008 8.64058 5.10985 
23.5146 9.00328 5.48196 
24.2977 8.85551 5.47351 
26.0781 8.44788 5.20146 
28.2139 8.60569 5.31737 
23.4081 9.38008 5.18536 
24.6343 9.16768 5.27914 
28.6128 9.4619 5.43063 
15.9502 11.8174 5.35844 
16.4782 11.6289 5.21242 
27.643 11.7231 5.42659 
15.7012 11.9825 5.28372 
16.3646 7.34553 5.99317 
24.477 7.69929 6.21146 
26.3069 7.3997 5.84204 
26.9391 7.43298 5.85955 
27.8028 7.67287 5.9842 
22.7487 8.04727 6.17362 
23.4048 8.2534 6.05794 
25.5217 7.85314 5.82223 
26.1017 7.73937 5.68853 
27.254 7.86429 5.63676 
27.6282 7.80565 5.8928 
17.5603 8.9044 5.66463 
22.8029 8.61209 5.80859 
24.0213 8.66308 5.71867 
24.6094 8.49602 5.70999 
28.3711 8.95427 5.9478 
32.3478 8.91598 6.0062 
28.5956 9.38941 5.99454 
28.8084 9.661 5.92534 
30.7534 9.78615 5.75146 
32.5242 9.5709 5.97364 
35.3198 9.28718 6.07587 
17.7813 10.1537 5.98493 
32.7659 10.0958 5.97549 
33.0692 10.4254 6.00253 
16.4605 11.1248 6.16895 
17.3042 11.0457 5.76569 
26.9305 11.6369 5.96587 
15.1589 12.0939 5.94933 
25.4285 6.19397 6.83106 
26.1514 6.02578 6.71595 
21.419 6.77146 6.39309 
24.2098 6.74896 6.87407 
24.8255 6.65368 6.74763 
26.2306 6.56687 6.37221 
16.3817 7.48378 6.50245 
22.2204 7.40946 6.46076 
23.4631 7.42443 6.6104 
24.1337 7.36742 6.52444 
25.4196 7.01924 6.33747 
27.8699 7.57381 6.63971 
32.6252 7.50005 6.85489 
23.5292 7.8418 6.32424 
27.5511 7.77794 6.61503 
28.1773 8.32315 6.71189 
33.0107 8.16035 6.89606 
28.3348 8.72233 6.52664 
31.9205 8.5406 6.59403 
32.6058 8.79241 6.53176 
33.1222 8.74537 6.8215 
35.9092 8.99948 6.49344 
17.1134 9.24115 6.67966 
28.5863 9.28418 6.48714 
29.7358 9.69342 6.82477 
30.6277 9.59803 6.69811 
32.5983 9.38984 6.45429 
29.2063 10.3601 6.69305 
15.8922 11.1399 6.79949 
16.2796 11.0696 6.57535 
27.0806 11.9054 6.35578 
23.4403 6.08416 7.49971 
26.1521 5.73059 7.1411 
27.0229 5.92641 7.38091 
23.3865 6.61284 7.16004 
24.1585 6.47003 7.07 
33.2309 7.40471 7.25494 
33.7474 7.32528 7.5839 
38.6809 7.54218 7.48036 
16.4991 7.91547 7.2814 
27.4358 7.81506 7.14213 
28.1137 8.17632 7.28509 
33.3595 8.06437 7.1317 
33.8263 8.00991 7.42665 
34.3807 8.29141 7.67314 
37.5219 8.16317 7.18709 
16.9558 9.31814 7.29594 
28.6637 9.39315 7.50765 
31.2185 9.27494 7.30617 
30.1522 9.97869 7.38218 
32.9973 10.3037 7.52245 
29.1721 10.5925 7.01342 
15.5635 11.3169 7.25051 
14.4983 12.3182 7.16138 
25.3581 4.63533 7.82692 
26.2255 4.7234 8.27721 
26.9698 4.54013 8.15773 
26.3898 5.21331 8.18461 
26.9609 5.13594 7.82788 
33.8876 5.34433 8.29514 
26.5106 5.89106 7.97023 
33.9216 6.0048 8.08503 
34.0785 6.67748 7.98074 
28.5172 9.0264 8.07045 
16.9395 9.56658 8.06869 
30.6119 9.72658 7.95935 
33.0122 9.66362 7.90775 
17.3597 10.9671 8.21988 
17.6119 10.8086 7.97571 
27.0675 0.205445 9.03677 
26.3755 4.08771 8.83967 
26.9165 3.87006 8.68329 
35.2714 3.74704 8.89049 
25.7393 4.47632 8.86258 
34.4442 5.31251 8.61554 
34.693 6.00957 8.61201 
16.2966 8.24735 8.74383 
16.3852 8.72194 8.97217 
28.4083 8.9232 8.65875 
31.5282 9.33444 8.90802 
26.9003 -0.353394 9.57204 
25.3648 0.506846 9.5369 
25.9912 0.407934 9.44214 
37.5821 3.90265 9.31504 
25.7259 4.40717 9.27933 
38.1664 4.65542 9.51367 
16.4328 8.78701 9.53077 
28.6377 8.9044 9.63138 
29.0223 9.40388 9.38653 
15.8274 11.1088 9.51199 
16.2666 10.9764 9.34979 
15.1938 11.9964 9.46249 
26.7915 -0.324395 10.2884 
25.5404 0.448465 10.0508 
16.4875 7.86923 10.2028 
31.2749 9.0297 10.2881 
15.6217 11.2787 10.1293 
14.9975 12.1406 10.1163 
26.6816 -0.469665 10.8482 
24.9417 0.21088 10.7979 
25.5201 0.297336 10.7229 
37.942 3.90479 10.9578 
29.0009 8.97271 10.8934 
31.2038 8.8968 10.7759 
17.6187 10.0786 10.9 
17.3177 10.9566 10.9304 
25.5005 -0.260682 11.7636 
26.2481 -0.45063 11.4008 
25.5605 0.0541439 11.3145 
38.9298 4.42772 11.4219 
39.2804 4.31128 11.6582 
29.1933 8.77828 11.391 
17.2214 11.01 11.4787 
15.1964 11.5113 11.4798 
25.0008 -0.867067 12.2184 
38.74 3.12917 12.2349 
34.2024 4.13332 11.9535 
34.094 4.25922 12.2788 
16.2952 8.17417 12.1666 
15.1565 11.6656 12.1523 
34.0469 4.37215 12.9241 
16.3287 7.5017 13.126 
29.89 8.27031 12.8708 
15.8229 11.112 13.0432 
30.3817 8.10206 13.8099 
17.3871 10.8546 13.6422 
17.5852 10.6645 13.5061 
15.6828 11.2737 13.5952 
14.5104 12.2302 13.6281 
38.9563 3.2874 14.3561 
16.3976 7.95665 14.431 
29.7615 8.18155 14.319 
29.5679 3.3969 14.9476 
32.0052 4.65071 14.9896 
17.6758 10.2291 14.9923 
16.4016 11.048 15.1882 
29.4651 3.28089 15.619 
34.6109 4.01141 15.6044 
16.0967 8.36984 15.8665 
16.4486 10.9892 15.5671 
14.8689 12.1155 15.8753 
29.5621 3.02713 16.3936 
32.3894 4.41945 16.4304 
15.4242 8.2382 16.6148 
14.9682 11.0203 16.6532 
17.3424 10.7153 16.5222 
14.5961 12.0857 16.6125 
33.2806 4.15635 17.3837 
16.0172 7.42737 17.3368 
15.7404 8.62767 17.0805 
16.5411 9.27915 17.2037 
17.0134 9.57316 17.2859 
15.0874 10.8387 17.0882 
15.5637 11.3463 17.2579 
29.3768 2.25997 17.8956 
32.2934 4.23545 17.7167 
16.3581 8.04568 18.0527 
16.7162 10.975 17.8037 
15.6592 11.5 17.8389 
33.9044 3.38635 18.7532 
31.1664 3.80132 18.4149 
16.6929 11.0706 18.2849 
15.5819 11.7002 18.5607 
31.4175 3.59844 19.0897 
16.4973 11.1191 19.1232 
17.0832 10.5758 19.3851 
16.831 8.94287 19.8962 
16.8569 9.32486 20.132 
15.966 11.433 20.0364 
31.9228 1.53468 22.3218 
16.299 10.8053 21.8633 
16.439 9.93072 22.5862 
31.8195 1.22568 23.1865 
15.9759 10.0062 23.6028 
31.78 1.04149 24.6978 
15.6703 10.0686 24.777 
15.0045 10.2465 25.4348 
30.9746 11.5045 0.686099 
33.1273 10.6075 1.23109 
26.8933 12.7955 1.19778 
36.9338 8.57482 1.87645 
33.7937 10.2774 1.85752 
32.6101 10.7617 2.02664 
26.5285 13.1992 1.95391 
35.1225 9.56407 2.59734 
32.0996 10.9882 2.27979 
29.7571 11.8006 2.57064 
30.7846 11.6412 2.16093 
31.798 10.186 3.31826 
31.7996 10.8475 3.25097 
18.5544 12.3128 3.37692 
19.7925 12.2825 3.31113 
21.9542 13.591 3.40858 
24.2572 13.5945 3.25556 
21.3912 14.2859 3.09559 
21.9212 14.1989 3.10018 
25.3816 14.0923 3.10747 
16.4049 6.66402 4.04631 
38.1442 7.85448 4.03751 
36.2545 8.71953 3.68485 
34.8571 9.54692 3.82983 
19.3431 9.93069 4.18867 
19.4231 10.8331 4.0551 
29.5413 11.0466 3.79823 
16.6105 11.4664 3.98981 
20.6139 11.7309 4.07648 
21.3647 11.6988 4.10829 
21.9601 11.826 4.09969 
25.9862 11.7464 3.93794 
22.5925 12.8699 3.55393 
17.2639 8.3312 4.582 
19.906 8.21853 4.49548 
27.564 7.96503 4.60687 
38.4521 7.74222 4.33344 
27.5676 8.84901 4.40113 
37.2009 8.40985 4.3643 
22.121 9.34324 4.54143 
23.4677 9.4891 4.60702 
24.2564 9.43496 4.59461 
28.2962 9.39447 4.30475 
17.9302 9.89956 4.73358 
20.608 10.2873 4.27482 
33.1016 10.4118 4.57178 
18.1175 10.7843 4.56515 
21.6099 10.8373 4.26364 
25.2827 10.7761 4.23882 
16.467 11.6463 4.61526 
25.5738 8.19964 5.5065 
23.6061 9.01557 5.4649 
28.1868 8.53389 5.31238 
23.3762 9.40247 5.14763 
28.7618 9.7582 5.36821 
17.8311 9.97385 5.36045 
16.391 11.7102 5.14791 
26.334 6.79624 6.2003 
27.7843 7.68056 5.97508 
21.3243 7.77073 5.91425 
22.0207 8.11026 5.9816 
23.3888 8.28822 6.0358 
24.2077 8.18544 5.99993 
22.7829 8.60035 5.81373 
17.2699 11.0624 5.80813 
15.2124 12.0551 5.98022 
21.4173 6.83948 6.37286 
16.4285 7.55221 6.50893 
22.7204 7.1859 6.73454 
24.1178 7.41431 6.50127 
23.6148 7.84582 6.31525 
37.2847 8.26581 6.80066 
32.059 8.50359 6.48832 
32.613 8.80097 6.5341 
17.1715 9.19836 6.69655 
17.819 10.3899 6.57664 
29.2829 10.416 6.828 
32.9915 10.4758 6.47602 
17.7449 10.5806 6.88941 
15.7412 11.2557 6.86697 
25.6174 5.17875 7.38282 
27.1675 5.39313 7.59386 
27.413 5.41778 7.50897 
22.8834 6.50165 7.21936 
27.2293 7.59198 7.27728 
27.6774 7.60659 7.23174 
28.1125 8.20962 7.25553 
37.6042 8.12134 7.16982 
24.5773 5.02023 7.87278 
33.9959 5.45784 8.3071 
26.6653 6.15323 7.77853 
34.7719 7.97301 8.00033 
35.3446 8.2262 8.27459 
35.4255 8.81498 8.23532 
16.895 9.5111 7.91071 
30.5491 9.75803 7.89713 
17.5814 10.8376 7.96372 
26.4803 4.05342 8.7586 
37.9742 4.83646 9.01193 
34.3817 5.24671 8.65187 
35.6474 8.18966 8.46649 
30.5413 9.67508 9.00553 
17.1931 11.0638 8.79219 
25.4123 0.513659 9.49695 
25.9589 0.423751 9.39463 
15.1853 12.0092 9.3955 
28.6068 8.77894 10.095 
15.8489 11.1368 9.93832 
25.0231 0.224251 10.8381 
16.4098 7.9862 10.8935 
28.9712 8.96255 10.8621 
16.744 9.37299 10.7365 
17.5795 9.95305 10.9774 
15.576 11.2973 10.6006 
26.4163 -0.573552 11.3257 
24.9962 0.0197385 11.2676 
16.2384 8.13914 11.5956 
29.2049 8.77214 11.3985 
29.7876 8.99082 11.6042 
17.2515 10.9965 11.4491 
25.0739 -0.794164 12.2312 
38.6206 3.22108 12.1238 
16.2671 8.25702 12.1218 
16.2575 8.55701 12.4037 
16.3005 7.46081 13.206 
32.0021 5.02424 13.5577 
16.4973 7.83546 13.81 
29.8079 8.20833 13.6436 
30.4159 8.05859 13.8633 
32.0803 4.67736 14.3368 
29.7696 8.20295 14.3615 
16.7652 9.41494 14.2475 
29.4783 3.35579 15.5541 
17.6129 10.3875 15.5576 
16.3692 11.0229 15.5894 
15.1473 11.8047 15.6363 
29.4971 2.93898 16.393 
31.2783 4.26449 16.3868 
14.9115 10.9481 16.7026 
14.6117 12.0862 16.6476 
29.4369 2.72763 17.1744 
33.2732 4.24369 16.8887 
16.4952 9.2112 17.1924 
17.0477 9.60066 17.3259 
14.4058 12.1859 17.256 
33.4066 3.9945 17.858 
15.5623 11.5509 17.8232 
33.8162 3.4208 18.7913 
31.2341 3.86027 18.3484 
16.4963 8.11952 18.3728 
31.3888 3.59436 19.077 
32.5608 3.56299 19.3616 
17.0693 10.5548 19.4869 
16.8464 9.00064 19.8251 
15.7472 11.5453 20.8319 
31.7618 1.22428 24.0082 
27.1163 12.3581 0.698762 
35.4938 9.35794 1.26231 
32.548 10.7398 0.99646 
29.6319 11.6702 1.1973 
27.1008 12.4071 1.23073 
27.5394 12.1384 1.16756 
29.1069 11.5533 1.80529 
38.8403 7.63573 2.63978 
33.5281 10.3833 2.35643 
33.8075 10.2546 2.53031 
32.6691 10.7617 2.38131 
14.4802 12.5343 2.52681 
14.9373 12.3965 2.29741 
14.3662 12.6669 2.54036 
26.7222 13.0357 2.52633 
32.407 9.63633 3.3413 
35.2858 9.45212 3.28077 
35.8448 9.15079 3.21003 
16.4023 11.6462 3.1953 
19.3865 12.4578 3.32688 
18.5655 12.8465 3.12818 
19.2025 12.8473 3.17795 
22.8334 13.046 3.3812 
24.116 12.9631 3.42284 
24.5759 13.2888 3.4693 
25.7407 12.9896 3.45505 
20.1869 13.3096 3.05766 
22.8107 13.591 3.20291 
24.1844 13.5571 3.24979 
22.6687 14.1478 3.06995 
24.8123 14.1767 3.10117 
17.3592 6.53868 4.15061 
31.8022 9.20276 3.85534 
32.4327 9.37141 3.79867 
19.3319 10.1098 4.16125 
20.0041 10.4493 4.18548 
28.2803 10.1954 3.96523 
32.7289 9.99365 3.85311 
33.066 10.3812 3.75142 
19.2413 11.0172 4.01058 
15.8552 11.8523 3.90227 
16.4251 11.5989 3.75192 
19.2531 11.7275 3.69 
20.0075 11.4534 4.05769 
20.6645 11.5359 4.09454 
21.4115 11.526 4.13458 
23.461 11.6039 4.15334 
24.8223 11.6012 4.11976 
25.4878 11.6026 4.09511 
24.1905 12.3229 3.98235 
25.6031 12.2449 3.86695 
21.4969 12.6893 3.70287 
23.4715 12.6483 4.00069 
24.0666 12.6631 3.75061 
16.5973 7.43165 4.48485 
16.9674 7.64635 4.55898 
17.3688 8.04298 4.47814 
18.4366 8.22944 4.51866 
28.0693 8.23827 4.39422 
17.8541 8.88648 4.46552 
19.1128 8.64486 4.35379 
20.5955 8.83251 4.50355 
25.5707 8.79552 4.58552 
28.406 8.86938 4.56309 
18.6954 9.20228 4.25016 
19.3582 9.46362 4.25516 
19.8889 9.39414 4.33119 
22.7468 9.49301 4.61584 
24.1167 9.42257 4.60386 
24.8698 9.43847 4.49201 
28.4642 9.28036 4.39414 
32.5214 9.4282 4.50935 
18.0051 10.1109 4.68524 
20.5793 10.0483 4.31197 
21.3588 10.0674 4.37539 
26.4084 9.87966 4.30565 
20.765 10.742 4.21699 
21.4423 10.7829 4.25904 
22.8945 10.8652 4.28551 
27.5965 10.6834 4.31987 
28.6462 10.6614 4.60643 
23.6166 11.2101 4.22082 
23.8811 11.2599 4.20718 
27.5842 11.5041 4.31498 
15.5961 12.0435 4.49616 
26.3854 7.61302 5.57032 
26.8123 7.64537 5.5073 
16.7116 7.82554 5.37125 
25.5859 8.24205 5.47896 
27.0318 7.94072 5.26925 
20.91 8.60436 5.28832 
22.9223 8.96427 5.52589 
35.9478 8.95116 5.14875 
17.6365 9.28593 5.11231 
22.6305 9.32539 5.21202 
24.0708 9.30312 5.23213 
24.5925 9.1778 5.21706 
28.5215 9.28461 5.42378 
35.2345 9.40184 5.20738 
17.9846 10.198 5.26564 
28.6522 10.4031 5.01643 
28.8451 9.82846 5.53891 
17.9297 10.7144 5.34018 
33.0585 10.6061 5.13055 
15.5665 12.0857 5.22208 
25.7295 6.99636 6.25718 
26.4086 6.79657 6.16608 
25.5989 7.41299 6.05356 
26.8462 7.39169 5.84155 
16.5089 7.98145 5.97693 
21.4833 8.03152 5.84552 
25.5638 7.94774 5.7443 
27.2629 7.85731 5.95284 
22.0158 8.53353 5.72915 
22.7588 8.59237 5.81403 
24.2146 8.58084 5.72955 
28.2322 8.6884 5.92326 
28.646 9.44461 6.10619 
31.7141 9.29624 5.78636 
15.8276 11.5066 6.02067 
27.1324 11.7648 6.16103 
25.6896 6.09374 6.81423 
22.8777 6.88037 6.96905 
26.1856 6.52662 6.39671 
26.7405 6.58486 6.44117 
24.9093 7.151 6.42965 
27.0774 7.51982 6.69382 
27.2142 7.79907 6.42493 
32.6345 8.11069 6.69565 
33.0806 8.58681 6.83574 
17.1012 9.35806 6.53217 
29.6145 9.64954 6.78645 
17.7257 10.1247 6.68964 
32.773 10.0773 6.58255 
32.9401 10.3874 6.66852 
15.5992 11.3874 6.62873 
27.1702 11.7905 6.36475 
25.5433 4.55514 7.67816 
24.2331 5.49523 7.60394 
25.5144 5.25511 7.3675 
25.9975 5.25546 7.38396 
27.1118 5.44862 7.57754 
23.6117 5.94224 7.53588 
25.5241 5.74465 7.07631 
26.2402 5.74985 7.29856 
22.6474 6.47805 7.14945 
23.4251 6.56462 7.192 
26.8277 6.61541 7.35918 
