ply
format ascii 1.0
comment Created by CloudCompare v2.11.1 (Anoia)
comment Created 2026/6/4 下午3:33
obj_info Generated by CloudCompare!
element vertex 1862
property float x
property float y
property float z
end_header
17.8729 -13.4748 8.06227 
17.927 -13.4259 8.027 
30.8818 -13.4413 8.04218 
30.9117 -13.4816 8.05685 
17.9754 -13.3743 8.05308 
18.0107 -13.3228 8.05136 
30.8498 -13.3366 8.04875 
18.0493 -13.2566 8.06975 
18.1224 -13.2142 8.02263 
30.7909 -13.2068 8.03001 
30.8295 -13.2685 8.05589 
18.1616 -13.1491 8.0596 
18.2101 -13.1172 8.02618 
30.777 -13.1626 8.0558 
18.1979 -13.0931 8.07735 
18.25 -13.0486 8.05749 
30.7443 -13.0349 8.05015 
18.2927 -12.9745 8.09088 
18.3493 -12.9555 8.0411 
30.6937 -12.9256 8.04922 
30.7234 -12.9641 8.07594 
18.3761 -12.8789 8.05534 
18.4383 -12.8289 8.04401 
30.5868 -12.8187 8.01939 
30.6292 -12.8361 8.06081 
18.4804 -12.7806 8.07491 
18.5232 -12.7387 8.05408 
30.4755 -12.7289 8.03246 
30.5531 -12.7805 8.05766 
18.5678 -12.6794 8.03953 
18.64 -12.6108 8.02547 
30.3788 -12.6221 8.03744 
30.4252 -12.6663 8.07059 
18.6765 -12.5589 8.07203 
18.714 -12.5169 8.04844 
30.2616 -12.5239 8.0581 
30.3397 -12.579 8.06332 
18.7537 -12.4617 8.05746 
18.8372 -12.4064 8.02299 
30.1615 -12.4249 8.07631 
30.2084 -12.4916 8.01726 
18.8603 -12.374 8.05995 
29.9993 -12.3092 8.04179 
30.0648 -12.3635 8.04761 
30.1057 -12.3962 8.04481 
18.9595 -12.2422 8.04039 
29.8794 -12.2242 8.06144 
29.9533 -12.2649 8.03777 
18.996 -12.1927 8.086 
19.0432 -12.1591 8.04813 
29.7784 -12.1226 8.0208 
29.8205 -12.1672 8.01688 
19.0894 -12.0841 8.04225 
19.1446 -12.0252 8.04535 
29.6792 -12.0152 8.04918 
29.7352 -12.0715 8.04799 
19.1847 -11.9829 8.05985 
19.2244 -11.9372 8.04949 
29.5759 -11.9205 8.05828 
29.6371 -11.97 8.06479 
19.273 -11.8836 8.05239 
19.3272 -11.8299 8.0537 
29.4532 -11.8267 8.05678 
29.5212 -11.8852 8.04226 
19.3729 -11.7798 8.05281 
19.4202 -11.719 8.03198 
29.368 -11.7439 8.05015 
29.4089 -11.7843 8.05018 
19.4667 -11.6442 8.05629 
19.5121 -11.6068 8.04282 
29.1938 -11.6208 8.00471 
29.2527 -11.6548 8.05602 
19.5505 -11.5518 8.06405 
29.0863 -11.5241 8.014 
29.1452 -11.5497 8.05577 
29.2118 -11.5903 8.08462 
19.5874 -11.489 8.09 
19.6443 -11.461 8.05645 
19.7202 -11.4159 8.0309 
28.9902 -11.4187 8.04518 
29.035 -11.4607 8.0524 
19.7583 -11.349 8.05138 
28.8766 -11.3311 8.0429 
28.9437 -11.3765 8.06092 
19.7984 -11.2843 8.06181 
19.8486 -11.2451 8.05698 
19.9128 -11.2071 8.01684 
28.7598 -11.2206 8.0334 
28.8175 -11.269 8.06185 
19.8933 -11.1996 8.08894 
19.9494 -11.1542 8.03754 
28.6729 -11.1539 8.06392 
28.7137 -11.1849 8.0712 
19.986 -11.0804 8.07565 
20.0426 -11.0423 8.04966 
20.1039 -11.0013 8.02933 
28.4906 -11.0014 8.00685 
28.5672 -11.0531 8.05 
28.6024 -11.0657 8.07581 
20.1461 -10.9358 8.05116 
28.3874 -10.9135 8.01685 
28.4559 -10.9672 8.05571 
20.186 -10.8732 8.04958 
20.2444 -10.8209 8.0418 
28.2697 -10.8107 8.02299 
28.3457 -10.8667 8.04584 
20.2808 -10.7793 8.05369 
20.3177 -10.7212 8.05876 
28.1802 -10.7305 8.03114 
28.2327 -10.7734 8.05337 
20.3665 -10.6565 8.06032 
20.4157 -10.6141 8.04672 
28.065 -10.6373 8.03905 
28.131 -10.6859 8.0525 
20.4589 -10.5594 8.05534 
20.5125 -10.5095 8.02086 
27.9605 -10.5339 8.04175 
28.011 -10.5823 8.03936 
20.4968 -10.4947 8.09138 
20.5338 -10.4486 8.05929 
27.8519 -10.4393 8.02337 
27.9104 -10.4936 8.05984 
20.4765 -10.3155 8.0261 
20.5408 -10.3715 8.02952 
27.7453 -10.3426 8.07098 
27.8033 -10.3844 8.06396 
20.3537 -10.2555 8.0815 
20.4367 -10.2959 8.05103 
27.5903 -10.2179 8.04251 
27.6365 -10.2524 8.05976 
20.2431 -10.1425 8.04902 
20.316 -10.1985 8 
27.4621 -10.1123 8.0269 
27.5318 -10.1642 8.05851 
20.0849 -10.0215 8.07689 
20.1549 -10.0534 8.0369 
20.2216 -10.0999 8.00613 
27.3887 -10.0389 8.02297 
27.4274 -10.0635 8.05848 
19.9875 -9.91993 8.0713 
20.034 -9.95212 8.04559 
20.1124 -9.99973 8.00821 
27.2889 -9.93058 8.03122 
27.3288 -9.96256 8.05533 
19.8811 -9.83441 8.05595 
19.9288 -9.87518 8.05858 
27.2956 -9.88873 8.04083 
27.347 -9.84121 8.03974 
27.4017 -9.80461 8.07317 
19.7531 -9.72622 8.06678 
19.825 -9.78028 8.03869 
27.3892 -9.79216 8.02585 
27.4275 -9.74723 8.05605 
19.6635 -9.64287 8.04112 
19.7387 -9.69223 8.02341 
27.4708 -9.68407 8.03658 
27.557 -9.64257 8.07292 
19.4966 -9.51266 8.07974 
19.5609 -9.55879 8.06257 
19.6062 -9.57413 8.01108 
27.5736 -9.56246 8.03427 
27.6128 -9.53854 8.06909 
19.3924 -9.41089 8.07501 
19.4347 -9.43962 8.05508 
19.5033 -9.49356 8.01613 
27.6612 -9.47177 8.04546 
27.7307 -9.44056 8.07527 
19.2769 -9.30711 8.06716 
19.3451 -9.35459 8.04454 
19.4054 -9.38763 8.02028 
27.7584 -9.37407 8.05077 
19.1834 -9.21576 8.06049 
19.2446 -9.25947 8.03852 
27.8542 -9.25052 8.04081 
27.9404 -9.20509 8.08543 
19.0705 -9.12359 8.05703 
19.1314 -9.16723 8.05256 
27.9399 -9.15052 8.04393 
18.9514 -9.02258 8.06734 
19.0363 -9.08745 8.04549 
27.999 -9.0834 8.04324 
28.0494 -9.0432 8.04432 
28.1064 -9.02908 8.09678 
18.864 -8.94191 8.07419 
18.937 -8.99478 8.04604 
28.0938 -8.96621 8.02194 
28.1223 -8.94129 8.06419 
18.6917 -8.80386 8.09685 
18.7603 -8.83182 8.03738 
18.8219 -8.89075 8.05364 
28.1749 -8.87869 8.08022 
28.2349 -8.84187 8.05687 
18.5997 -8.70059 8.07471 
18.6511 -8.74229 8.0612 
18.7119 -8.78504 8.02716 
28.2784 -8.75394 8.03694 
28.3068 -8.72533 8.0566 
18.4929 -8.61099 8.04805 
18.5548 -8.64767 8.03917 
18.6089 -8.69006 8.0484 
28.3699 -8.67379 8.04759 
28.4246 -8.62674 8.05708 
18.3958 -8.52551 8.06138 
18.4334 -8.56133 8.05931 
18.5053 -8.59816 8.00148 
28.4595 -8.5579 8.04383 
28.5149 -8.50434 8.08064 
18.269 -8.42315 8.08147 
18.3512 -8.47132 8.03963 
28.5588 -8.44674 8.03349 
28.6165 -8.41695 8.07248 
18.1789 -8.33067 8.07129 
18.2342 -8.37226 8.04698 
28.6517 -8.34144 8.03997 
17.9863 -8.20222 8.09292 
18.0624 -8.24771 8.05935 
18.1328 -8.28136 8.02591 
28.7335 -8.26398 8.049 
17.8876 -8.10495 8.07025 
17.9589 -8.16267 8.06136 
28.8373 -8.13249 8.04303 
17.8562 -8.06002 8.04946 
17.9187 -8.09632 8.00644 
28.8766 -8.09398 8.0501 
28.9414 -8.03672 8.06983 
17.7499 -7.95889 8.0394 
17.8182 -7.99696 8.00527 
28.9786 -7.97587 8.05196 
29.0313 -7.92384 8.072 
17.5786 -7.82553 8.07045 
17.6403 -7.86273 8.04166 
29.0711 -7.87187 8.04659 
29.1272 -7.82367 8.06161 
17.4758 -7.73589 8.05069 
17.5123 -7.78214 8.03643 
29.1798 -7.75052 8.0416 
29.2249 -7.71476 8.07263 
17.3686 -7.63511 8.05867 
17.4136 -7.65956 8.03164 
29.2649 -7.6587 8.04945 
29.3003 -7.62725 8.07451 
17.2485 -7.52885 8.04527 
17.3211 -7.58165 8.0273 
29.2925 -7.59502 8.00892 
29.3586 -7.5345 8.05299 
17.0812 -7.40426 8.0701 
17.152 -7.45641 8.05665 
17.2184 -7.49099 8.02332 
29.3856 -7.49197 8.00826 
29.4452 -7.44608 8.04591 
16.9751 -7.30923 8.06622 
17.0459 -7.35505 8.04147 
29.5295 -7.34417 8.04354 
16.8765 -7.22864 8.08397 
16.9325 -7.27253 8.05475 
29.592 -7.27901 8.04895 
29.6137 -7.26324 8.05765 
16.8358 -7.15239 8.04685 
29.6838 -7.1828 8.04229 
29.7325 -7.14233 8.06633 
16.6738 -7.03411 8.06287 
16.7422 -7.07086 8.05322 
29.7658 -7.08375 8.03133 
29.8135 -7.00848 8.0271 
16.5689 -6.92836 8.0576 
16.6345 -6.97124 8.02539 
29.8637 -6.96623 8.05567 
16.4658 -6.84187 8.04605 
16.5173 -6.87797 8.03026 
23.6648 -6.80253 8.03176 
23.7016 -6.80252 8.02846 
29.9689 -6.86129 8.04204 
30.0226 -6.80631 8.08276 
16.2892 -6.71515 8.09371 
16.3543 -6.74791 8.06141 
16.4123 -6.76727 8.00762 
23.548 -6.72339 8.04736 
23.6452 -6.75516 8.07086 
23.7553 -6.74479 8.04159 
23.8056 -6.70833 8.00947 
30.0546 -6.7626 8.05598 
30.1466 -6.72123 8.06263 
16.1846 -6.60985 8.09834 
16.2521 -6.65843 8.04982 
23.4755 -6.66322 8.04782 
23.501 -6.66499 8.0944 
23.7656 -6.68163 8.08677 
23.838 -6.65272 8.03606 
30.1596 -6.65165 8.03813 
30.211 -6.62093 8.07286 
16.0936 -6.54764 8.08611 
16.1524 -6.56952 8.05413 
16.2047 -6.58783 8.01637 
23.281 -6.50733 8.03974 
23.3453 -6.53975 8.04321 
23.8858 -6.56588 8.07795 
23.9241 -6.53987 8.06081 
30.0962 -6.50804 8.04999 
30.1465 -6.5526 8.05202 
15.9827 -6.42466 8.06088 
16.0391 -6.47736 8.05274 
23.1915 -6.40054 8.05846 
23.2195 -6.43835 8.05967 
23.9683 -6.4849 8.09772 
24.036 -6.43134 8.03625 
29.9954 -6.4212 8.058 
30.0434 -6.46232 8.05486 
15.8639 -6.33374 8.04812 
15.9278 -6.37176 8.03131 
23.1566 -6.36826 8.04394 
24.0586 -6.38358 8.06037 
24.1154 -6.33454 8.02283 
29.8927 -6.32657 8.07199 
29.9325 -6.36486 8.05847 
15.7623 -6.23999 8.06463 
15.8196 -6.27512 8.02497 
22.9816 -6.21808 8.03371 
23.0422 -6.27237 8.0464 
24.1647 -6.26347 8.05923 
29.7971 -6.22661 8.07173 
29.8342 -6.26632 8.0508 
15.6476 -6.14512 8.03933 
15.73 -6.18898 8.01404 
22.8698 -6.12547 8.0315 
22.9341 -6.17283 8.05266 
24.2666 -6.13975 8.06533 
24.3158 -6.1121 8.026 
29.7449 -6.17119 8.05391 
15.5523 -6.05971 8.06606 
15.6064 -6.09182 8.01867 
22.7658 -6.02554 8.03638 
22.8263 -6.08022 8.0444 
24.345 -6.06019 8.05627 
24.4063 -6.01237 8.00948 
29.5788 -6.00659 8.03133 
29.6304 -6.0503 8.04847 
15.3832 -5.90511 8.06174 
15.4469 -5.96469 8.04808 
22.6541 -5.94953 8.02987 
22.7177 -5.97772 8.0698 
24.4386 -5.94837 8.05864 
29.4714 -5.92274 8.0343 
29.5293 -5.96914 8.0506 
15.3378 -5.85455 8.04032 
22.5751 -5.85433 8.04831 
22.6019 -5.89157 8.04049 
24.4829 -5.88414 8.06713 
24.5649 -5.81682 8.05148 
29.3752 -5.83092 8.05733 
29.4223 -5.87127 8.054 
15.1896 -5.72754 8.04043 
15.2376 -5.77953 8.04677 
22.4276 -5.72056 8.05777 
22.5125 -5.77089 8.09812 
24.589 -5.79026 8.05488 
24.6283 -5.74437 8.03765 
29.2604 -5.73681 8.04799 
29.322 -5.78885 8.05326 
15.0695 -5.6445 8.06836 
15.1108 -5.66287 8.03463 
22.2898 -5.60745 8.06755 
22.3618 -5.65572 8.0627 
24.6764 -5.67734 8.04831 
24.7252 -5.62993 8.05261 
29.1467 -5.6274 8.04834 
29.2193 -5.696 8.0792 
14.9883 -5.55254 8.04673 
15.017 -5.59387 8.06004 
22.1795 -5.51296 8.03252 
22.2425 -5.57494 8.05761 
24.7747 -5.56909 8.05809 
24.828 -5.51293 8.0245 
28.9951 -5.50151 8.01594 
29.0373 -5.53517 8.03383 
29.1137 -5.59662 8.03849 
14.7913 -5.40397 8.08985 
14.8434 -5.4371 8.05451 
14.9124 -5.48443 8.03795 
22.0797 -5.42911 8.02655 
22.1347 -5.46339 8.05654 
24.862 -5.44883 8.06086 
24.9106 -5.41866 8.03032 
28.8825 -5.40906 8.03719 
28.9383 -5.45946 8.05502 
14.7629 -5.34736 8.04278 
21.9769 -5.31895 8.05449 
22.0275 -5.37264 8.06299 
24.8946 -5.39803 8.09597 
24.9464 -5.35772 8.06357 
25.0086 -5.33278 8.00309 
28.7762 -5.32209 8.06537 
28.8439 -5.37809 8.04699 
14.5876 -5.2209 8.05929 
14.6483 -5.26341 8.04081 
21.8403 -5.22675 8.03947 
21.9222 -5.27424 8.05375 
24.979 -5.28811 8.09048 
25.029 -5.26193 8.04993 
28.6662 -5.22528 8.05651 
28.7292 -5.28081 8.02315 
14.4765 -5.11537 8.08205 
14.5355 -5.15131 8.05881 
21.7641 -5.13287 8.06354 
21.8151 -5.18946 8.06958 
25.0928 -5.18985 8.08672 
25.14 -5.14747 8.05227 
28.5573 -5.13771 8.04617 
28.6146 -5.18402 8.05097 
14.3842 -5.04692 8.04629 
14.4464 -5.07925 8.03446 
21.66 -5.05155 8.0457 
21.7155 -5.08665 8.07256 
25.1942 -5.08413 8.07105 
25.2526 -5.04173 8.05252 
25.3 -5.0079 8.00636 
28.4661 -5.06182 8.05574 
14.273 -4.93865 8.05045 
14.3086 -4.9808 8.07034 
21.4826 -4.90591 8.01922 
21.5338 -4.93509 8.04546 
25.3495 -4.93777 8.03712 
28.2922 -4.9049 8.07957 
28.3591 -4.96869 8.0549 
14.1768 -4.83833 8.0354 
14.2187 -4.86944 8.04129 
21.3774 -4.81423 8.04584 
21.4482 -4.87056 8.07085 
25.391 -4.86827 8.07063 
25.4345 -4.82542 8.05317 
28.195 -4.81089 8.05841 
28.2466 -4.85797 8.06373 
13.9968 -4.70278 8.07543 
14.0466 -4.73383 8.0438 
14.1088 -4.78831 8.0381 
21.2664 -4.71992 8.03314 
21.3368 -4.76119 8.05963 
25.4772 -4.77364 8.06555 
25.5295 -4.72052 8.03911 
28.0856 -4.7161 8.04863 
28.1426 -4.76295 8.04592 
13.9423 -4.65043 8.05036 
14.0035 -4.69192 8.02912 
21.1673 -4.62437 8.06238 
21.2339 -4.68502 8.06961 
25.5661 -4.67667 8.03402 
25.6106 -4.63178 8.04634 
27.9761 -4.62825 8.05612 
28.0301 -4.66834 8.05069 
13.7916 -4.50725 8.05486 
13.847 -4.55186 8.0414 
21.047 -4.52257 8.03725 
21.1206 -4.57268 8.05335 
25.676 -4.56219 8.05992 
25.7266 -4.51092 8.04592 
27.8668 -4.53283 8.04975 
27.9222 -4.58243 8.04642 
13.6794 -4.42669 8.05886 
13.7524 -4.47815 8.04011 
20.9569 -4.43458 8.0438 
21.0071 -4.48852 8.05948 
25.7682 -4.46703 8.04128 
25.8129 -4.40448 8.07691 
27.7547 -4.434 8.0353 
27.8182 -4.4896 8.05466 
13.5518 -4.31739 8.05851 
13.6308 -4.36871 8.04597 
20.7892 -4.30892 8.06943 
20.8568 -4.34982 8.04443 
20.9208 -4.3899 8.05099 
25.8579 -4.35499 8.04963 
25.9144 -4.30842 8.0134 
27.6427 -4.33782 8.04154 
27.7015 -4.3901 8.05427 
13.458 -4.23661 8.04556 
13.5225 -4.27919 8.01554 
20.7564 -4.26818 8.04809 
25.9497 -4.25406 8.05369 
26.0064 -4.2046 8.0062 
27.5404 -4.24474 8.05248 
13.2909 -4.12314 8.0886 
13.3569 -4.14669 8.04947 
13.4145 -4.19136 8.04134 
20.6648 -4.13832 8.04446 
20.717 -4.19505 8.00939 
26.03 -4.16014 8.04741 
27.438 -4.15123 8.05813 
13.1866 -4.01284 8.06645 
13.2421 -4.05289 8.05327 
20.4853 -4.0318 8.05696 
20.554 -4.06797 8.04505 
20.6079 -4.09312 8.04307 
26.0869 -4.07573 8.05277 
26.1186 -4.03733 8.04852 
27.2946 -4.02138 8.04275 
27.3508 -4.07038 8.04086 
13.0922 -3.92807 8.02686 
13.142 -3.97653 8.05407 
20.3605 -3.91363 8.04011 
20.4339 -3.97958 8.04531 
26.1795 -3.96639 8.07403 
26.2369 -3.9361 8.03542 
27.1742 -3.92569 8.05236 
27.238 -3.97291 8.05395 
12.9844 -3.81762 8.05675 
13.0376 -3.87859 8.05755 
20.2815 -3.84059 8.04954 
20.3339 -3.88286 8.06062 
26.2539 -3.87879 8.08956 
26.3189 -3.84697 8.04118 
26.9908 -3.80324 8.02392 
27.0447 -3.84547 8.05753 
27.1216 -3.89182 8.06958 
12.884 -3.7287 8.05916 
12.9513 -3.78199 8.04315 
20.1557 -3.73119 8.04501 
20.2274 -3.78616 8.05749 
26.3654 -3.76853 8.05353 
26.408 -3.71878 8.01831 
26.8893 -3.70965 8.05669 
26.9503 -3.76624 8.03231 
12.7715 -3.61244 8.04754 
12.8161 -3.65121 8.05112 
20.0666 -3.64625 8.05512 
20.1104 -3.69196 8.06979 
26.4455 -3.63028 8.05475 
26.78 -3.61396 8.05377 
26.8451 -3.67042 8.05853 
12.6681 -3.53121 8.05947 
12.7326 -3.5841 8.043 
19.8941 -3.50574 8.03328 
19.9485 -3.53952 8.05993 
26.4752 -3.55406 8.04854 
26.5235 -3.50779 8.02027 
26.6846 -3.52627 8.06713 
26.7322 -3.57159 8.04949 
12.5785 -3.4416 8.05584 
12.6225 -3.48052 8.06094 
19.7762 -3.40827 8.04242 
19.8314 -3.44715 8.05238 
26.5567 -3.46829 8.05823 
26.6306 -3.4766 8.0285 
12.3953 -3.30309 8.0883 
12.4485 -3.34462 8.04931 
12.5181 -3.39332 8.02939 
19.6744 -3.33236 8.04808 
19.7335 -3.37271 8.05387 
12.2786 -3.21056 8.06896 
12.3601 -3.26198 8.04445 
12.4019 -3.2927 8.05702 
19.5636 -3.23278 8.03297 
19.6288 -3.27453 8.07307 
12.192 -3.10784 8.04749 
12.2411 -3.16628 8.03821 
19.4677 -3.14729 8.04717 
19.5239 -3.18683 8.07075 
12.065 -3.00054 8.08489 
12.1453 -3.05818 8.05939 
19.3425 -3.02207 8.05033 
19.4205 -3.09565 8.03174 
11.9812 -2.93044 8.06523 
12.0494 -2.97758 8.02645 
19.189 -2.9002 8.01229 
19.2536 -2.95156 8.04331 
11.8622 -2.81973 8.07186 
11.9289 -2.86572 8.03505 
19.0883 -2.8163 8.02228 
19.1457 -2.8521 8.04408 
11.7755 -2.72027 8.05361 
11.8336 -2.76934 8.03798 
18.9806 -2.70639 8.0327 
19.0446 -2.76524 8.05203 
11.6468 -2.63295 8.05074 
11.7186 -2.68054 8.04964 
18.8848 -2.63648 8.02458 
18.9252 -2.65197 8.07209 
11.5561 -2.54403 8.05344 
11.6138 -2.58676 8.01357 
18.7812 -2.51372 8.08224 
18.8207 -2.56605 8.06372 
11.3933 -2.41076 8.08248 
11.4496 -2.45539 8.03975 
18.6759 -2.45138 8.04931 
18.7222 -2.48548 8.04542 
11.2914 -2.30454 8.02471 
11.3427 -2.34657 8.04298 
18.5527 -2.3364 8.04991 
18.6089 -2.38764 8.05303 
11.1701 -2.22612 8.04856 
11.2272 -2.2633 8.04207 
18.3997 -2.21398 8.00285 
18.4545 -2.25637 8.05849 
10.9803 -2.10384 8.04656 
11.0551 -2.15651 8.06691 
11.1122 -2.18299 8.02778 
18.29 -2.12076 8.04766 
18.3372 -2.15246 8.05239 
10.9799 -2.03091 8.03458 
18.1791 -2.01754 8.03933 
18.224 -2.06464 8.05436 
11.0168 -1.96379 8.05297 
18.078 -1.94274 8.035 
18.1369 -1.98116 8.05615 
11.0854 -1.87649 8.0464 
11.1251 -1.84 8.01354 
17.9655 -1.82723 8.04916 
18.0226 -1.88692 8.06014 
11.1805 -1.73378 8.04177 
17.8429 -1.73506 8.06259 
17.93 -1.78554 8.07153 
11.1551 -1.65031 8.04227 
17.7551 -1.64384 8.04279 
17.8064 -1.69812 8.02923 
11.059 -1.53956 8.03338 
11.1336 -1.58371 8.0657 
17.5898 -1.51434 8.04309 
17.6521 -1.55817 8.06056 
17.7154 -1.59639 8.08584 
10.9629 -1.43344 8.05227 
11.0186 -1.47699 8.07049 
17.5387 -1.44593 8.06132 
10.9308 -1.35822 8.05247 
17.3793 -1.30223 8.06044 
17.4546 -1.34249 8.05857 
17.5044 -1.39027 8.03773 
10.9524 -1.25259 8.04676 
17.2572 -1.22798 8.06205 
17.3364 -1.27957 8.04924 
10.9913 -1.18496 8.04818 
11.0226 -1.13392 8.06248 
17.1679 -1.13578 8.06196 
17.2158 -1.17639 8.08907 
10.9861 -1.02285 8.07018 
11.0307 -1.06775 8.05784 
17.0448 -1.03576 8.04997 
17.1093 -1.09135 8.05931 
10.8577 -0.920746 8.06304 
10.9164 -0.974935 8.03863 
16.8922 -0.905912 8.02704 
16.9491 -0.947056 8.07753 
17.0167 -0.996142 8.07609 
10.746 -0.81108 8.04918 
10.8158 -0.863913 8.0724 
16.7815 -0.804616 8.03913 
16.8366 -0.851223 8.04542 
10.66 -0.770313 8.04614 
10.721 -0.795804 8.07474 
16.69 -0.733309 8.02253 
16.7269 -0.766767 8.04168 
10.5762 -0.616798 8.05209 
16.5631 -0.614093 8.031 
16.6472 -0.67683 8.06022 
10.3918 -0.511606 8.0561 
10.4474 -0.543845 8.04356 
10.5491 -0.583419 8.03146 
16.4724 -0.543425 8.04426 
16.5333 -0.588579 8.05701 
10.298 -0.406711 8.05736 
10.3427 -0.466614 8.03558 
16.3553 -0.437594 8.05748 
16.4195 -0.490966 8.04759 
10.1953 -0.303316 8.04977 
10.2603 -0.360872 8.0591 
16.2453 -0.346724 8.06326 
10.07 -0.211013 8.03218 
10.1413 -0.263104 8.05207 
16.0853 -0.21159 8.04537 
16.1712 -0.27964 8.04827 
9.98651 -0.126756 8.06054 
10.0254 -0.171977 8.01899 
15.9818 -0.123776 8.03682 
16.0341 -0.164526 8.05463 
9.87051 -0.0173813 8.03337 
9.924 -0.0720139 8.05073 
15.8752 -0.0297383 8.05284 
15.9319 -0.0755622 8.03839 
9.77434 0.0805591 8.06617 
9.83774 0.0196394 8.03339 
15.765 0.078612 8.05462 
15.8253 0.0207042 8.0591 
9.69701 0.178155 8.05346 
9.72515 0.152132 8.0253 
15.6578 0.158529 8.05569 
15.7217 0.115173 8.05674 
9.58502 0.277894 8.04075 
9.63968 0.232481 8.04064 
15.4973 0.299748 8.03065 
15.537 0.267414 8.03641 
15.6072 0.209846 8.07936 
9.46952 0.390322 8.06 
9.51954 0.34237 8.05474 
15.4503 0.347896 8.05195 
9.39606 0.477963 8.03329 
9.4222 0.43361 8.04226 
15.2902 0.479143 8.01646 
15.3392 0.447324 8.04664 
9.39116 0.525598 8.03042 
9.42304 0.570316 8.06427 
15.1968 0.57018 8.06456 
15.209 0.550804 8.03291 
9.4784 0.644073 8.06003 
9.5103 0.677061 8.07087 
15.0658 0.680722 8.04385 
15.1403 0.62509 8.05503 
9.56677 0.730369 8.03887 
9.61136 0.775632 8.02463 
14.981 0.769271 8.05681 
15.0144 0.729376 8.0508 
9.67019 0.847996 8.05927 
9.7028 0.886606 8.06684 
14.8415 0.867185 8.04525 
14.9153 0.818384 8.05545 
9.75934 0.957839 8.06116 
14.6932 0.995537 8.03006 
14.7487 0.9612 8.05284 
14.8018 0.91106 8.08675 
9.79396 1.00489 8.04439 
9.85805 1.06415 8.04803 
14.594 1.09651 8.04736 
14.6325 1.05475 8.06121 
14.7012 1.01566 8.09903 
9.8952 1.10764 8.07048 
9.92394 1.15161 8.04504 
14.4902 1.18768 8.04074 
14.5503 1.14086 8.05959 
9.97665 1.23817 8.03622 
10.0328 1.29292 8.05353 
14.3804 1.27786 8.03768 
14.4348 1.23757 8.0603 
10.0632 1.30516 8.02753 
10.147 1.3408 8.04045 
13.0912 1.39522 8.05412 
13.1345 1.39386 8.05103 
13.6639 1.36937 8.06758 
13.7621 1.3284 8.04091 
13.8255 1.35108 8.06128 
14.2975 1.39148 8.03921 
14.3266 1.35473 8.09184 
10.1948 1.44739 8.06724 
10.2039 1.47245 8.00045 
12.9829 1.49271 8.05908 
13.0505 1.42987 8.05625 
13.1714 1.41432 8.01891 
13.2282 1.4675 8.06317 
13.5457 1.46924 8.05121 
13.6098 1.42473 8.04096 
13.8936 1.41653 8.05014 
13.9394 1.47344 8.04975 
14.2421 1.45985 8.05453 
10.2348 1.5434 8.04275 
10.3349 1.59687 8.05106 
12.8761 1.5719 8.04699 
12.9167 1.53645 8.01578 
13.2847 1.5529 8.04265 
13.3296 1.59079 8.06925 
13.4525 1.55932 8.04505 
13.5105 1.5191 8.00345 
13.9812 1.50745 8.01606 
14.0535 1.57178 8.07259 
14.1463 1.54747 8.05547 
14.2074 1.51663 8.08188 
10.368 1.61612 8.03152 
10.4226 1.65358 8.0587 
12.7846 1.69126 8.09446 
12.8173 1.65175 8.06228 
13.3789 1.61344 8.0333 
13.411 1.60046 8.03035 
10.4518 1.75013 8.05518 
12.6618 1.77422 8.05486 
12.757 1.73773 8.0376 
10.4804 1.83013 8.04486 
10.536 1.88083 8.04093 
10.6109 1.89544 8.07192 
12.5653 1.8435 8.03059 
10.677 1.94433 8.05671 
12.3889 1.99908 8.06328 
12.4469 1.98341 8.05253 
12.5256 1.93261 8.0545 
10.6968 2.04804 8.02425 
10.701 2.03777 8.08581 
12.2696 2.08379 8.02929 
12.3416 2.03173 8.05419 
10.7405 2.13181 8.04247 
10.8215 2.1827 8.07021 
12.1821 2.15666 8.05956 
12.2125 2.1327 8.0671 
10.868 2.22613 8.06824 
10.9249 2.28704 8.03257 
12.064 2.26783 8.05471 
12.1217 2.20805 8.03508 
10.9564 2.3322 8.02306 
11.9329 2.37906 8.04029 
12.0118 2.31175 8.05507 
11.0638 2.45111 8.05339 
11.1061 2.49671 8.03737 
11.7844 2.49544 8.01428 
11.861 2.43449 8.05539 
11.9013 2.40433 8.03139 
11.1427 2.5402 8.04693 
11.677 2.59584 8.06057 
11.735 2.54767 8.04227 
11.1906 2.60476 8.08768 
11.2392 2.65834 8.05572 
11.5867 2.67053 8.04957 
11.6291 2.63001 8.05618 
11.2873 2.7161 8.03921 
11.334 2.77082 8.05696 
11.476 2.76961 8.07553 
11.5316 2.72244 8.06542 
11.3851 2.8288 8.03876 
11.4348 2.80528 8.03121 
21.291 -16.904 8.10824 
21.3431 -16.9372 8.1568 
21.4129 -16.9323 8.16203 
21.19 -16.8228 8.17846 
21.239 -16.8603 8.15209 
21.4424 -16.8444 8.15217 
28.6842 -16.8157 8.18208 
28.7796 -16.8232 8.1651 
28.8357 -16.828 8.16622 
28.9242 -16.8205 8.19553 
21.061 -16.7213 8.13057 
21.1363 -16.7795 8.13768 
21.4793 -16.7665 8.14225 
21.5255 -16.7254 8.15765 
28.068 -16.7121 8.19321 
28.1523 -16.7145 8.18222 
28.2538 -16.7335 8.17201 
28.3432 -16.7492 8.16858 
28.4381 -16.748 8.14964 
28.5439 -16.7501 8.13941 
28.652 -16.7702 8.13288 
28.7504 -16.7858 8.11967 
28.8368 -16.8 8.12648 
28.9552 -16.7682 8.14745 
29.041 -16.7333 8.1539 
29.1441 -16.7201 8.17116 
29.2116 -16.7059 8.17751 
20.9692 -16.6324 8.14533 
21.0127 -16.6785 8.16242 
21.565 -16.6741 8.15129 
21.6201 -16.6103 8.14864 
27.5827 -16.609 8.19485 
27.6713 -16.6121 8.16281 
27.7393 -16.622 8.15023 
27.856 -16.6518 8.1721 
27.9507 -16.6537 8.1518 
28.0415 -16.6716 8.15115 
28.1364 -16.6673 8.12519 
28.2302 -16.6881 8.12432 
28.3081 -16.6953 8.10895 
29.06 -16.695 8.12509 
29.1465 -16.6811 8.12412 
29.2554 -16.6614 8.13745 
29.3502 -16.6236 8.13927 
29.4598 -16.6133 8.18604 
20.8765 -16.5302 8.14698 
20.9169 -16.5748 8.15174 
21.5991 -16.5785 8.108 
21.6554 -16.5553 8.13987 
21.7142 -16.532 8.17999 
27.4591 -16.5133 8.15143 
27.5478 -16.568 8.14422 
27.6422 -16.5831 8.12348 
27.8256 -16.5933 8.10807 
29.4699 -16.5865 8.14079 
29.5541 -16.5464 8.13732 
29.6432 -16.5287 8.14155 
29.7163 -16.5201 8.15223 
29.8111 -16.5044 8.18831 
20.7859 -16.4224 8.14456 
20.8318 -16.4734 8.15318 
21.7632 -16.448 8.14881 
21.807 -16.4336 8.18122 
27.3613 -16.4082 8.14906 
27.4296 -16.4648 8.13565 
29.6966 -16.4963 8.10826 
29.7578 -16.4817 8.12963 
29.8538 -16.4464 8.14526 
29.9382 -16.4335 8.16475 
30.0235 -16.4043 8.16694 
20.6742 -16.3237 8.14587 
20.7541 -16.3833 8.16614 
21.787 -16.3808 8.10914 
21.8445 -16.3622 8.15924 
21.9092 -16.3038 8.18488 
27.2602 -16.3347 8.15299 
27.3442 -16.3755 8.13041 
29.973 -16.3939 8.12332 
30.0495 -16.3635 8.12786 
30.1355 -16.3288 8.17177 
20.5714 -16.2221 8.1535 
20.6308 -16.2752 8.15547 
21.8761 -16.2808 8.11909 
21.9337 -16.2421 8.15417 
27.0829 -16.2022 8.17819 
27.1615 -16.2315 8.14301 
27.2264 -16.2843 8.13253 
30.1561 -16.2718 8.1414 
30.2133 -16.2358 8.174 
20.4534 -16.119 8.14863 
20.5228 -16.182 8.14717 
21.9646 -16.1754 8.12292 
22.028 -16.1348 8.1461 
27.0239 -16.1269 8.14434 
27.1335 -16.1848 8.11419 
30.269 -16.1353 8.14028 
30.3114 -16.1253 8.17393 
20.3489 -16.0382 8.14341 
20.4202 -16.0826 8.15779 
22.0718 -16.0758 8.13185 
22.1387 -16.0394 8.17034 
26.8528 -16.0204 8.19298 
26.9526 -16.0696 8.15913 
27.0045 -16.0882 8.12638 
30.2876 -16.0937 8.11059 
30.359 -16.0544 8.15235 
30.4119 -16.0285 8.19253 
20.1952 -15.9073 8.13669 
20.2553 -15.9553 8.15422 
20.3102 -15.9961 8.18728 
22.1641 -15.9541 8.12199 
22.2187 -15.939 8.16306 
26.7699 -15.9204 8.17455 
26.8541 -15.9738 8.13986 
30.3974 -15.9666 8.11691 
30.4487 -15.9657 8.16815 
30.5059 -15.9199 8.18493 
20.0982 -15.8027 8.14214 
20.1523 -15.8653 8.14479 
22.2714 -15.8483 8.14598 
22.3115 -15.8362 8.18147 
26.6745 -15.8325 8.18372 
26.7409 -15.8651 8.14651 
30.5252 -15.845 8.13343 
30.6009 -15.8017 8.18764 
19.9838 -15.7239 8.11208 
20.0663 -15.7769 8.1395 
22.2912 -15.7909 8.125 
22.3693 -15.7447 8.1557 
22.4197 -15.706 8.17284 
26.5576 -15.7321 8.1598 
26.6422 -15.7677 8.13274 
30.5693 -15.7702 8.13016 
30.6258 -15.7441 8.1533 
19.8806 -15.6207 8.14886 
19.9354 -15.6698 8.15361 
22.3989 -15.6857 8.12126 
22.44 -15.6515 8.14055 
26.4691 -15.6461 8.15061 
26.536 -15.668 8.11345 
30.6764 -15.6632 8.11674 
30.736 -15.6369 8.17456 
19.7831 -15.5301 8.15719 
19.8359 -15.5794 8.15524 
22.4766 -15.5762 8.12782 
22.5484 -15.5297 8.15881 
26.2899 -15.5012 8.18715 
26.3569 -15.5385 8.1579 
26.4273 -15.5763 8.12787 
30.7646 -15.5683 8.14758 
19.6735 -15.44 8.14005 
19.7201 -15.4688 8.15775 
22.5821 -15.4657 8.13321 
22.638 -15.4269 8.158 
26.1863 -15.4104 8.19432 
26.2589 -15.4516 8.15869 
26.3321 -15.4857 8.12421 
30.8626 -15.4623 8.14635 
30.916 -15.4252 8.1689 
19.5547 -15.3414 8.15241 
19.605 -15.39 8.12199 
22.6661 -15.3521 8.11801 
22.7267 -15.346 8.17021 
26.063 -15.3085 8.18986 
26.1501 -15.3506 8.15591 
26.2225 -15.3908 8.10626 
30.8888 -15.3945 8.11359 
30.9442 -15.3378 8.15588 
19.3928 -15.2162 8.11263 
19.465 -15.2644 8.15014 
19.5027 -15.2921 8.15677 
22.7545 -15.2718 8.13114 
22.8145 -15.2265 8.16349 
25.9675 -15.2046 8.17573 
26.0495 -15.2649 8.15087 
30.9586 -15.2477 8.15521 
19.299 -15.1298 8.12597 
19.3389 -15.158 8.14638 
22.8523 -15.1634 8.14719 
22.9131 -15.1176 8.16503 
25.8745 -15.124 8.14783 
25.9379 -15.1559 8.14478 
26.0108 -15.1921 8.1005 
30.9708 -15.1578 8.15286 
19.1751 -15.0167 8.15276 
19.2452 -15.0753 8.14328 
22.9373 -15.053 8.12372 
23.0098 -15.0275 8.18877 
25.8324 -15.0768 8.15208 
30.992 -15.0437 8.14149 
31.0063 -15.0904 8.19223 
19.0493 -14.9163 8.13088 
19.1251 -14.9782 8.12795 
22.9812 -14.9946 8.12941 
23.0688 -14.9562 8.17712 
23.1174 -14.9098 8.18537 
25.6804 -14.9239 8.14916 
25.7429 -14.9675 8.14012 
30.9815 -14.947 8.12788 
31.0214 -14.9378 8.17578 
18.9745 -14.8465 8.16712 
19.0216 -14.8818 8.17876 
23.085 -14.8861 8.12096 
23.1417 -14.8356 8.14613 
25.4999 -14.8195 8.19702 
25.549 -14.831 8.17136 
25.6214 -14.8582 8.14132 
30.9798 -14.8849 8.11623 
31.0247 -14.8361 8.16764 
18.8385 -14.7312 8.13383 
18.9165 -14.7982 8.17741 
23.1686 -14.7701 8.11501 
23.2445 -14.738 8.16592 
25.3992 -14.7011 8.18077 
25.4678 -14.7677 8.16735 
25.5311 -14.7877 8.12638 
31.0245 -14.7355 8.14468 
18.7547 -14.6556 8.1361 
18.8071 -14.6933 8.1742 
23.2905 -14.6702 8.14635 
23.3276 -14.6531 8.17357 
25.2763 -14.6238 8.19731 
25.3481 -14.6415 8.15769 
25.4178 -14.689 8.13144 
30.9975 -14.646 8.10229 
31.0435 -14.6502 8.16142 
18.5887 -14.5069 8.15069 
18.6413 -14.5566 8.14339 
23.3681 -14.5738 8.14527 
23.4193 -14.5342 8.16139 
25.1734 -14.5331 8.18924 
25.2329 -14.5542 8.15473 
31.0682 -14.5635 8.14967 
31.1039 -14.5085 8.19206 
18.4899 -14.4305 8.11912 
18.543 -14.4633 8.14989 
23.4628 -14.4528 8.1373 
23.5438 -14.4065 8.18435 
25.0709 -14.4229 8.15867 
25.1402 -14.449 8.12512 
31.0837 -14.4257 8.13222 
31.1106 -14.4658 8.18734 
18.3787 -14.3352 8.13036 
18.4272 -14.3664 8.15943 
23.4867 -14.3851 8.1221 
23.5454 -14.3477 8.14126 
23.6016 -14.3124 8.16418 
24.9837 -14.3251 8.15202 
25.0096 -14.3556 8.15215 
31.0934 -14.3887 8.13276 
31.1306 -14.3298 8.14845 
18.2617 -14.2285 8.1384 
18.3166 -14.2694 8.15643 
23.6626 -14.2366 8.1631 
23.707 -14.2119 8.19589 
24.8571 -14.2234 8.15156 
24.9336 -14.2753 8.15013 
31.1569 -14.2467 8.16454 
18.0867 -14.1217 8.13913 
18.1556 -14.1636 8.13873 
18.2203 -14.1916 8.17382 
23.6744 -14.1771 8.1294 
23.753 -14.1366 8.17537 
23.8072 -14.1054 8.19627 
24.7687 -14.128 8.14334 
24.824 -14.1903 8.15109 
31.1644 -14.1447 8.15399 
17.9661 -14.0258 8.13681 
18.0397 -14.0839 8.18416 
23.7778 -14.0455 8.12337 
23.8441 -14.039 8.17679 
24.5962 -14.0132 8.17144 
24.6454 -14.0524 8.16878 
24.7285 -14.086 8.11839 
31.1564 -14.0274 8.15906 
17.8592 -13.9267 8.14662 
17.9114 -13.979 8.14569 
23.8569 -13.9609 8.12297 
23.9287 -13.9271 8.15538 
24.4701 -13.9182 8.1861 
24.5471 -13.9462 8.14766 
24.6064 -13.977 8.11497 
31.0877 -13.9416 8.13607 
31.1328 -13.9662 8.16503 
17.7512 -13.8289 8.15548 
17.8177 -13.8863 8.1509 
23.9786 -13.8495 8.11743 
24.0192 -13.8316 8.16873 
24.374 -13.8179 8.17756 
24.4344 -13.8527 8.14531 
24.5053 -13.885 8.10735 
31.0547 -13.8465 8.15348 
17.6681 -13.7554 8.16119 
24.0528 -13.7724 8.14162 
24.1235 -13.7235 8.15805 
24.2648 -13.7227 8.17683 
24.3493 -13.7664 8.13292 
31.0467 -13.7623 8.16054 
17.5955 -13.6393 8.19339 
17.6142 -13.6466 8.14436 
24.1651 -13.6719 8.1293 
24.2323 -13.6626 8.13159 
30.9837 -13.6472 8.12885 
31.0216 -13.6687 8.16419 
17.6434 -13.5854 8.15777 
17.7407 -13.5382 8.14094 
30.9609 -13.549 8.15339 
17.7886 -13.4851 8.16401 
17.8315 -13.463 8.14454 
17.9218 -13.4105 8.11889 
30.9312 -13.4464 8.16441 
17.9513 -13.3706 8.12569 
30.8792 -13.3489 8.131 
30.9024 -13.3348 8.18108 
17.9863 -13.2531 8.17664 
18.0164 -13.2552 8.12896 
30.8505 -13.2408 8.14766 
18.0685 -13.1539 8.17589 
18.1262 -13.1245 8.134 
30.7842 -13.1121 8.13448 
30.8203 -13.1586 8.16171 
18.1691 -13.0368 8.16349 
18.2371 -13.0234 8.1023 
30.7877 -13.0537 8.16253 
30.8136 -13.075 8.19151 
18.181 -12.9895 8.18302 
18.2462 -12.9348 8.16127 
18.3098 -12.9248 8.11652 
30.7525 -12.9417 8.14614 
18.2864 -12.866 8.19057 
18.3492 -12.8494 8.14688 
18.4162 -12.8098 8.12638 
30.659 -12.8243 8.12949 
30.7165 -12.8596 8.16769 
18.3836 -12.7892 8.17642 
18.444 -12.7579 8.15207 
18.5063 -12.7304 8.10961 
30.4841 -12.715 8.13338 
30.544 -12.758 8.1187 
30.6437 -12.7866 8.16011 
18.4823 -12.6881 8.18354 
18.5296 -12.648 8.15651 
30.4522 -12.631 8.15526 
30.5208 -12.6828 8.1812 
18.585 -12.5551 8.1848 
18.6428 -12.5392 8.14329 
30.2703 -12.5056 8.12072 
30.3531 -12.5534 8.14565 
30.427 -12.598 8.16139 
18.6817 -12.4903 8.14454 
18.7442 -12.4326 8.12736 
30.1732 -12.4177 8.11137 
30.2376 -12.4471 8.15223 
18.7549 -12.3682 8.1765 
18.8437 -12.346 8.13003 
30.0711 -12.3249 8.12517 
30.1386 -12.3531 8.16488 
18.8676 -12.2809 8.15284 
18.9155 -12.2187 8.15051 
29.9576 -12.224 8.14737 
30.0491 -12.2691 8.16169 
30.1089 -12.2965 8.18935 
18.9633 -12.1548 8.16257 
19.0174 -12.1218 8.14277 
29.8543 -12.1466 8.13908 
29.909 -12.1746 8.16774 
18.9934 -12.0811 8.19378 
19.0577 -12.0511 8.16449 
19.1186 -12.0288 8.11956 
29.7556 -12.0255 8.15555 
29.828 -12.0726 8.1818 
19.15 -11.9629 8.15636 
19.2159 -11.9148 8.13404 
29.6451 -11.9508 8.12626 
29.7267 -11.9723 8.18581 
19.2588 -11.8618 8.14998 
19.3122 -11.812 8.15538 
29.4806 -11.8232 8.13569 
29.5354 -11.8549 8.15674 
29.6223 -11.8891 8.18673 
19.3539 -11.7514 8.15566 
29.3773 -11.7118 8.1279 
29.4469 -11.7565 8.16115 
19.3866 -11.6476 8.19335 
19.4371 -11.6411 8.13391 
29.2696 -11.6162 8.14164 
29.3372 -11.6679 8.15466 
29.4016 -11.6956 8.19118 
19.4707 -11.5765 8.17096 
19.5233 -11.5388 8.14589 
29.1858 -11.5381 8.14838 
29.2302 -11.5724 8.16118 
19.5871 -11.4574 8.15689 
19.6547 -11.4181 8.13931 
29.0577 -11.4355 8.13969 
29.1193 -11.474 8.15669 
19.6503 -11.3688 8.18437 
19.7197 -11.3381 8.14868 
28.8867 -11.3104 8.12661 
28.9445 -11.3432 8.14706 
29.0146 -11.3868 8.15907 
19.7754 -11.2699 8.1467 
19.8272 -11.2231 8.14678 
28.7917 -11.21 8.13281 
28.8421 -11.2449 8.14773 
28.9118 -11.2835 8.18443 
19.8608 -11.1652 8.17874 
19.919 -11.1347 8.13707 
28.6772 -11.1143 8.1364 
28.7344 -11.1515 8.15951 
19.9565 -11.0651 8.16857 
20.028 -11.0329 8.10875 
28.582 -11.0102 8.16754 
28.6499 -11.0639 8.1606 
28.7074 -11.0986 8.1892 
20.0581 -10.9606 8.16816 
20.1165 -10.927 8.13243 
28.4656 -10.9307 8.13265 
28.5351 -10.9649 8.1712 
20.1564 -10.8508 8.16334 
28.2877 -10.8132 8.10524 
28.3555 -10.8228 8.15055 
28.4404 -10.8712 8.17045 
20.1722 -10.7901 8.19433 
20.2547 -10.7303 8.15998 
20.3068 -10.7192 8.11494 
28.2631 -10.7347 8.15709 
28.3335 -10.7653 8.19363 
20.2359 -10.6963 8.19899 
20.3337 -10.6322 8.1592 
28.077 -10.6283 8.11395 
28.1682 -10.6739 8.14304 
28.2124 -10.6709 8.17976 
20.37 -10.5626 8.17506 
20.4524 -10.5335 8.11501 
27.965 -10.5187 8.1291 
28.0334 -10.5588 8.15236 
28.1129 -10.5973 8.18978 
20.4554 -10.4425 8.15952 
20.5131 -10.4623 8.10173 
27.8829 -10.4281 8.13242 
27.9313 -10.4598 8.16026 
20.3624 -10.3352 8.18513 
20.4439 -10.3564 8.13884 
27.7643 -10.3218 8.13498 
27.8367 -10.3569 8.15036 
20.2755 -10.238 8.1577 
20.3568 -10.2792 8.13231 
27.6699 -10.2349 8.14418 
27.7337 -10.2589 8.17765 
20.0774 -10.1076 8.19238 
20.1502 -10.128 8.17241 
20.219 -10.1777 8.15574 
27.5605 -10.143 8.14512 
27.6354 -10.1817 8.16961 
19.9916 -10.0056 8.18276 
20.0492 -10.0484 8.15469 
20.1162 -10.0855 8.14739 
27.4638 -10.0509 8.14979 
27.535 -10.0781 8.19229 
19.8724 -9.90996 8.19503 
19.9464 -9.93676 8.16433 
20.0223 -9.96879 8.10922 
27.3702 -9.9503 8.12325 
27.4218 -9.95881 8.17817 
19.781 -9.8139 8.15578 
19.8533 -9.8633 8.13838 
27.3845 -9.88533 8.13772 
27.436 -9.85626 8.16493 
19.6739 -9.72276 8.17016 
19.7405 -9.75408 8.14644 
27.4797 -9.75648 8.12633 
27.5205 -9.75508 8.17075 
19.57 -9.6526 8.19354 
19.635 -9.67652 8.13786 
27.5523 -9.68404 8.1378 
27.6217 -9.63093 8.17414 
19.4517 -9.52873 8.16711 
19.5474 -9.57757 8.1424 
27.666 -9.55627 8.15493 
27.7277 -9.50948 8.19162 
19.2997 -9.40833 8.1963 
19.3579 -9.43512 8.15227 
19.4135 -9.47553 8.13297 
27.6737 -9.49517 8.10123 
27.7541 -9.45899 8.13959 
27.8077 -9.42028 8.18427 
19.2685 -9.35077 8.15142 
19.325 -9.38333 8.12835 
27.8454 -9.33797 8.15916 
19.1534 -9.23487 8.1467 
19.2119 -9.29193 8.14193 
27.8686 -9.29016 8.11729 
27.9428 -9.26118 8.15652 
18.9896 -9.11509 8.15505 
19.0601 -9.17132 8.16299 
19.1223 -9.18902 8.12644 
27.9839 -9.13891 8.11267 
28.0383 -9.13639 8.17037 
18.8837 -9.023 8.18413 
18.9443 -9.05764 8.14762 
28.0712 -9.08428 8.13536 
28.1343 -9.04304 8.16486 
18.7645 -8.91261 8.17171 
18.8482 -8.97702 8.15039 
28.1636 -8.95919 8.14476 
28.2199 -8.92832 8.17534 
18.6737 -8.80702 8.14104 
18.7443 -8.87472 8.14414 
28.1773 -8.89021 8.11505 
28.2495 -8.87249 8.13498 
28.3093 -8.83391 8.16376 
18.5648 -8.75741 8.18497 
18.6269 -8.76928 8.13205 
28.3616 -8.74767 8.15049 
28.4101 -8.73147 8.1819 
18.4455 -8.63606 8.16144 
18.5218 -8.67606 8.13997 
28.3992 -8.67899 8.10993 
28.4543 -8.65734 8.14653 
28.5087 -8.63006 8.18789 
18.2937 -8.50919 8.18501 
18.3465 -8.53798 8.14871 
18.4247 -8.58101 8.10594 
28.5456 -8.54191 8.15419 
28.6009 -8.51627 8.1938 
18.1777 -8.41182 8.17973 
18.2658 -8.46258 8.15226 
18.3268 -8.49728 8.13959 
28.5711 -8.48776 8.12337 
28.6392 -8.43323 8.14563 
18.0915 -8.31556 8.16727 
18.1358 -8.34657 8.156 
18.2234 -8.39844 8.11684 
28.6902 -8.35205 8.14219 
28.7299 -8.3334 8.1586 
28.8035 -8.307 8.19817 
17.9673 -8.23198 8.17449 
18.0391 -8.26355 8.12966 
28.7688 -8.27953 8.12111 
28.8237 -8.22693 8.14383 
17.8587 -8.12855 8.17165 
17.9282 -8.16369 8.13802 
28.869 -8.15759 8.16341 
28.9262 -8.11651 8.17173 
17.761 -8.02532 8.15031 
17.8313 -8.06894 8.11061 
28.9705 -8.05757 8.13904 
29.0176 -8.01294 8.16662 
17.6482 -7.92905 8.15156 
17.7256 -7.97815 8.12488 
29.0432 -7.96436 8.1506 
29.1171 -7.91087 8.16282 
17.4993 -7.80995 8.18128 
17.5453 -7.8246 8.14836 
17.6123 -7.86653 8.13688 
29.0999 -7.89143 8.11517 
29.1637 -7.84388 8.14341 
17.4545 -7.75262 8.15408 
29.1956 -7.78131 8.1396 
29.2471 -7.74743 8.16446 
29.3136 -7.70609 8.16682 
17.2852 -7.63035 8.16641 
17.3528 -7.65909 8.14908 
17.4226 -7.69431 8.12046 
29.3385 -7.63053 8.1358 
17.1802 -7.5291 8.1791 
17.2284 -7.56247 8.14681 
29.3734 -7.55793 8.13788 
29.4338 -7.5186 8.1566 
17.0564 -7.42723 8.16388 
17.1477 -7.48321 8.14149 
29.4765 -7.46894 8.13863 
29.528 -7.42015 8.1607 
16.9803 -7.33315 8.13771 
17.0162 -7.37713 8.14258 
29.5669 -7.35461 8.14899 
29.6226 -7.30837 8.14258 
16.8702 -7.25466 8.14495 
16.9218 -7.29069 8.13452 
29.6765 -7.26652 8.14691 
29.7034 -7.21364 8.13516 
16.6872 -7.10619 8.19127 
16.7641 -7.14028 8.16254 
16.8181 -7.17891 8.14196 
29.7622 -7.1463 8.14691 
29.8029 -7.10478 8.14835 
16.584 -7.00829 8.18616 
16.6389 -7.04753 8.1445 
16.7019 -7.07933 8.11979 
29.8489 -7.04431 8.15297 
16.4772 -6.91786 8.1544 
16.5495 -6.96272 8.15563 
29.8503 -6.99249 8.10712 
29.9617 -6.92598 8.15788 
30.0031 -6.91297 8.19531 
16.3666 -6.82419 8.16093 
16.4308 -6.86882 8.13261 
29.9838 -6.89403 8.12518 
30.0437 -6.84031 8.16765 
16.2557 -6.7347 8.16689 
16.3221 -6.77059 8.14367 
23.6341 -6.70994 8.115 
30.0838 -6.77474 8.14722 
30.1453 -6.75421 8.15878 
30.2273 -6.72048 8.15461 
16.1693 -6.62752 8.14479 
16.2132 -6.64902 8.1058 
23.4707 -6.60893 8.12577 
23.5515 -6.64925 8.15454 
23.6383 -6.6732 8.16304 
23.7479 -6.64789 8.13298 
30.2312 -6.65157 8.15029 
15.9913 -6.51255 8.17893 
16.0437 -6.55983 8.17316 
16.1098 -6.57894 8.13017 
23.3607 -6.5074 8.11481 
23.4445 -6.55354 8.15825 
23.5171 -6.59044 8.18934 
23.842 -6.54269 8.13829 
30.0922 -6.50171 8.19586 
30.1417 -6.54366 8.15901 
30.2057 -6.59954 8.1912 
15.8838 -6.41223 8.18363 
15.9436 -6.45512 8.1762 
23.2694 -6.42963 8.14971 
23.3407 -6.46348 8.16694 
23.4148 -6.49532 8.19969 
23.8618 -6.46366 8.16856 
23.9312 -6.46781 8.12847 
24.0076 -6.41181 8.14673 
29.9857 -6.41119 8.12707 
30.0485 -6.46399 8.15263 
15.7937 -6.33324 8.17503 
15.8358 -6.36206 8.14498 
15.9068 -6.39822 8.11015 
23.1623 -6.33837 8.1252 
23.2381 -6.37743 8.17292 
23.9749 -6.37617 8.18446 
24.0208 -6.36113 8.14408 
29.8886 -6.32372 8.16607 
29.9296 -6.36279 8.13 
15.6737 -6.20637 8.12821 
15.7422 -6.25434 8.13836 
15.8011 -6.29865 8.11036 
22.9986 -6.21177 8.10828 
23.0393 -6.23364 8.14252 
23.11 -6.29058 8.13795 
23.9994 -6.2998 8.19045 
24.0649 -6.26876 8.16334 
24.1447 -6.2362 8.13009 
29.7832 -6.22108 8.15563 
29.841 -6.27364 8.14874 
15.5848 -6.13713 8.1569 
15.631 -6.17357 8.11652 
22.9634 -6.16116 8.13748 
23.0086 -6.17528 8.18799 
24.18 -6.17609 8.15876 
24.2306 -6.13244 8.12598 
29.6587 -6.14422 8.17199 
29.7359 -6.16912 8.13276 
15.4557 -6.03158 8.1606 
15.5299 -6.07404 8.15326 
22.7872 -6.01764 8.10117 
22.8453 -6.05481 8.14633 
24.2696 -6.07111 8.16315 
24.321 -6.02507 8.16047 
29.4843 -6.00716 8.1897 
29.5459 -6.02602 8.15866 
29.631 -6.07419 8.12859 
15.2984 -5.90348 8.19255 
15.3448 -5.92935 8.16753 
15.4141 -5.97359 8.12232 
22.6541 -5.91488 8.11897 
22.7448 -5.95755 8.15308 
24.3677 -5.98115 8.14557 
24.4171 -5.92735 8.12201 
29.3902 -5.93497 8.19109 
29.4632 -5.95656 8.15231 
29.5228 -5.98138 8.12102 
15.1924 -5.81516 8.19107 
15.2363 -5.83451 8.15147 
15.3117 -5.87077 8.11408 
22.5875 -5.8174 8.15264 
22.6272 -5.86376 8.15475 
24.3951 -5.89279 8.19233 
24.4482 -5.86046 8.15942 
24.5273 -5.80384 8.14725 
29.2618 -5.82546 8.19531 
29.3441 -5.84851 8.14508 
29.4027 -5.88778 8.13313 
15.1584 -5.74022 8.14974 
15.2182 -5.798 8.11394 
22.4668 -5.71936 8.1547 
22.5448 -5.76668 8.16417 
24.5507 -5.75787 8.16034 
29.1841 -5.73824 8.18038 
29.2526 -5.76486 8.14274 
29.3119 -5.78169 8.1023 
14.9788 -5.61683 8.17572 
15.0497 -5.66375 8.15401 
15.1042 -5.68007 8.11678 
22.3901 -5.62443 8.17527 
22.4257 -5.66976 8.1704 
24.5879 -5.69064 8.16814 
24.6452 -5.64873 8.15484 
24.7015 -5.60348 8.14603 
29.0656 -5.62629 8.17586 
29.1296 -5.66238 8.1546 
14.8813 -5.51936 8.16532 
14.9393 -5.54299 8.12703 
22.2516 -5.54422 8.1573 
22.3389 -5.58902 8.17023 
24.6854 -5.57397 8.18398 
24.7497 -5.52336 8.14444 
28.9672 -5.52723 8.16643 
29.0568 -5.57606 8.13585 
14.7673 -5.41744 8.14866 
14.8509 -5.47969 8.12051 
22.0903 -5.40447 8.11747 
22.1615 -5.45854 8.13178 
22.2289 -5.48168 8.19244 
24.7707 -5.47513 8.16213 
24.8399 -5.42327 8.13675 
28.8754 -5.43324 8.15457 
28.9319 -5.4759 8.13813 
14.6442 -5.32539 8.16756 
14.7368 -5.36839 8.12889 
22.0541 -5.34988 8.14591 
22.1068 -5.37506 8.1807 
24.8774 -5.36653 8.15827 
24.9285 -5.3291 8.13218 
28.7638 -5.33645 8.15509 
28.8344 -5.38189 8.13693 
14.545 -5.24098 8.16867 
14.6054 -5.29704 8.16574 
21.8777 -5.21634 8.11875 
21.9652 -5.24739 8.15849 
22.0098 -5.28952 8.15642 
24.9593 -5.2764 8.15112 
25.028 -5.22173 8.14133 
28.5959 -5.21798 8.18217 
28.6431 -5.2296 8.14591 
28.7267 -5.28236 8.13133 
14.3889 -5.12528 8.19916 
14.4589 -5.13995 8.13688 
14.5145 -5.18331 8.13373 
21.7841 -5.12289 8.11666 
21.8379 -5.15343 8.15502 
21.9127 -5.19383 8.18864 
25.064 -5.17163 8.17787 
25.1169 -5.13008 8.15192 
28.4611 -5.10834 8.18166 
28.5586 -5.16266 8.14089 
28.6097 -5.18303 8.11053 
14.293 -5.01254 8.18902 
14.3587 -5.04897 8.13125 
21.6554 -5.01583 8.12429 
21.743 -5.06245 8.14728 
21.8036 -5.08541 8.18885 
25.1777 -5.06437 8.15273 
25.2198 -5.02067 8.17202 
28.3847 -5.03315 8.17887 
28.4301 -5.05366 8.14383 
14.2541 -4.95346 8.15013 
21.563 -4.9176 8.12826 
21.6438 -4.96618 8.17851 
25.2704 -4.96985 8.15902 
25.3044 -4.95916 8.12683 
28.2705 -4.91317 8.14498 
28.3253 -4.95648 8.14202 
14.0724 -4.81688 8.16188 
14.1258 -4.85182 8.14965 
14.2042 -4.88665 8.11972 
21.4479 -4.82811 8.152 
21.5404 -4.87424 8.16245 
25.3635 -4.86344 8.14636 
25.4231 -4.81534 8.11769 
28.1734 -4.83676 8.15549 
28.232 -4.88533 8.1468 
13.972 -4.72728 8.167 
14.0407 -4.76515 8.13213 
21.2821 -4.7028 8.12003 
21.3458 -4.73327 8.14674 
21.4125 -4.77876 8.17752 
25.4673 -4.74431 8.16074 
25.5109 -4.70627 8.12215 
28.0524 -4.73499 8.17073 
28.1258 -4.77432 8.13218 
13.8426 -4.62541 8.17174 
13.9421 -4.68245 8.11325 
21.1884 -4.62011 8.13719 
21.2686 -4.67131 8.15678 
25.541 -4.66103 8.1655 
27.8946 -4.60208 8.18663 
27.9532 -4.63793 8.15964 
28.028 -4.68581 8.12641 
13.757 -4.53944 8.16988 
13.8298 -4.56716 8.11515 
21.0923 -4.52405 8.12438 
21.1633 -4.57064 8.15431 
25.644 -4.54264 8.15443 
27.8469 -4.54442 8.154 
27.9053 -4.59031 8.14765 
13.5957 -4.4099 8.18097 
13.6637 -4.44877 8.13307 
13.7057 -4.48576 8.13137 
20.9765 -4.43685 8.12127 
21.0282 -4.45434 8.16488 
21.1201 -4.49704 8.19585 
25.6886 -4.47763 8.16788 
25.7386 -4.4467 8.14931 
27.6768 -4.41271 8.17924 
27.7497 -4.46694 8.15996 
27.8171 -4.49806 8.10098 
13.4936 -4.30167 8.11563 
13.5521 -4.34134 8.12942 
13.6073 -4.36893 8.12427 
20.7981 -4.3084 8.10894 
20.868 -4.32715 8.13645 
20.9438 -4.37382 8.15498 
21.0019 -4.39383 8.19952 
25.7789 -4.377 8.19288 
25.8229 -4.35881 8.15199 
27.5959 -4.33556 8.18721 
27.6431 -4.36109 8.15349 
13.3692 -4.2047 8.1747 
13.4361 -4.25527 8.1453 
20.7679 -4.21946 8.15171 
20.8475 -4.28277 8.17803 
25.892 -4.26428 8.14813 
25.9311 -4.22412 8.15187 
27.4919 -4.21561 8.16177 
27.5468 -4.26104 8.14563 
13.2771 -4.13948 8.15394 
13.3283 -4.16628 8.13805 
20.6608 -4.12828 8.14324 
20.7264 -4.16187 8.16819 
25.9752 -4.16406 8.1585 
26.0224 -4.13118 8.11712 
27.3871 -4.12692 8.1609 
27.4408 -4.16391 8.14487 
13.1568 -4.02226 8.15056 
13.2276 -4.0783 8.13654 
20.4694 -4.00627 8.11524 
20.5556 -4.04169 8.15523 
20.6241 -4.07937 8.18317 
26.0441 -4.07362 8.14834 
27.2555 -4.02651 8.1718 
27.326 -4.05709 8.14058 
13.0562 -3.94254 8.15755 
13.1095 -3.97746 8.13283 
20.4392 -3.94177 8.13711 
20.5147 -3.9834 8.18624 
26.1504 -3.94435 8.15577 
26.2047 -3.91189 8.11422 
27.1606 -3.9359 8.16278 
27.2358 -3.97722 8.13123 
12.8972 -3.8085 8.19276 
12.9534 -3.82985 8.15302 
13.0168 -3.88497 8.12724 
20.2859 -3.81667 8.13975 
20.3472 -3.85053 8.15767 
20.4151 -3.86894 8.19698 
26.1872 -3.88916 8.18521 
26.2344 -3.85604 8.15897 
27.0563 -3.85168 8.14662 
27.1241 -3.88744 8.12059 
12.7999 -3.71268 8.1713 
12.8491 -3.75295 8.1654 
12.9209 -3.77942 8.10963 
20.1868 -3.71307 8.1596 
20.2372 -3.75894 8.15354 
26.2957 -3.78792 8.17234 
26.3464 -3.74679 8.14973 
26.8918 -3.71367 8.15693 
26.94 -3.75432 8.15744 
12.6763 -3.61805 8.18347 
12.7463 -3.64816 8.14491 
12.8219 -3.69361 8.11475 
20.0729 -3.63943 8.13268 
20.1435 -3.67817 8.1647 
26.3906 -3.67897 8.1846 
26.4334 -3.64295 8.13092 
26.7813 -3.6109 8.12919 
26.8341 -3.66132 8.14011 
12.6544 -3.56129 8.13023 
19.9588 -3.52351 8.1409 
20.0339 -3.57723 8.15998 
26.4771 -3.52899 8.16394 
26.6791 -3.5277 8.14172 
26.742 -3.57914 8.13883 
12.478 -3.42482 8.17147 
12.5427 -3.46645 8.16479 
12.6055 -3.49451 8.11586 
19.8632 -3.43694 8.15207 
19.9137 -3.47096 8.17407 
26.5309 -3.44418 8.16128 
26.6243 -3.47244 8.1577 
12.3785 -3.32982 8.16595 
12.431 -3.36632 8.13199 
19.6952 -3.32325 8.14698 
19.7577 -3.35551 8.13954 
19.8248 -3.37782 8.18772 
12.2457 -3.22386 8.14531 
12.3408 -3.27964 8.12963 
19.5939 -3.21681 8.12481 
19.6431 -3.25435 8.16371 
12.1748 -3.15253 8.17646 
12.2143 -3.1774 8.13131 
19.4723 -3.13172 8.13415 
19.5438 -3.16687 8.15134 
19.6067 -3.19615 8.19641 
12.0555 -3.04324 8.17153 
12.1387 -3.07029 8.12706 
19.3776 -3.02334 8.13699 
19.4217 -3.05702 8.15604 
11.8983 -2.91714 8.17816 
11.952 -2.95933 8.16706 
12.0047 -2.98132 8.12243 
19.2524 -2.92272 8.1412 
19.3253 -2.98355 8.13631 
11.7873 -2.80841 8.19442 
11.847 -2.84698 8.14447 
19.162 -2.82423 8.13372 
19.2245 -2.86895 8.16823 
11.6801 -2.71595 8.17065 
11.7419 -2.73646 8.136 
11.809 -2.78091 8.10709 
19.0512 -2.74524 8.14208 
19.1291 -2.76459 8.18118 
11.5756 -2.62489 8.17179 
11.6369 -2.67046 8.14469 
18.8871 -2.60962 8.12076 
18.9616 -2.64502 8.15034 
19.0153 -2.67813 8.17617 
11.4736 -2.51542 8.15383 
11.5492 -2.56804 8.13007 
18.8412 -2.55638 8.1503 
18.9097 -2.58423 8.19623 
11.3722 -2.41749 8.14817 
11.4247 -2.47683 8.15961 
18.6769 -2.41772 8.14403 
18.7281 -2.44469 8.15493 
18.8104 -2.49785 8.1903 
11.2792 -2.32836 8.16039 
11.3263 -2.36273 8.13883 
18.5773 -2.32698 8.12737 
18.6285 -2.36541 8.16546 
11.086 -2.20639 8.15796 
11.1583 -2.24449 8.16337 
11.2277 -2.27292 8.13345 
18.4541 -2.22968 8.14678 
18.5376 -2.27439 8.15377 
10.967 -2.1356 8.16287 
11.0431 -2.17356 8.13929 
18.3695 -2.13378 8.14145 
18.4179 -2.16902 8.17357 
10.9526 -2.03605 8.15025 
18.1937 -2.0129 8.12489 
18.2527 -2.04878 8.15347 
18.3126 -2.07411 8.16457 
10.9902 -1.98748 8.13105 
11.0201 -1.94324 8.15591 
18.0601 -1.90355 8.14704 
18.1627 -1.96588 8.14659 
18.2054 -1.98507 8.18773 
11.0637 -1.88672 8.14668 
11.1103 -1.82637 8.13643 
17.9736 -1.81943 8.12994 
18.0294 -1.87561 8.14335 
11.1729 -1.74713 8.14458 
17.8556 -1.72808 8.13174 
17.941 -1.76947 8.15679 
11.1897 -1.60754 8.18563 
11.2065 -1.65561 8.17615 
17.757 -1.626 8.13425 
17.8271 -1.67877 8.18577 
11.1448 -1.55052 8.15656 
17.6447 -1.52193 8.15237 
17.7242 -1.57727 8.15004 
10.9887 -1.422 8.11599 
11.037 -1.44278 8.16224 
11.1095 -1.48438 8.19073 
17.5521 -1.43306 8.14983 
17.6025 -1.47553 8.16405 
10.9617 -1.36615 8.13931 
17.3919 -1.30816 8.13041 
17.4499 -1.33653 8.15073 
17.5168 -1.3919 8.15644 
10.9614 -1.23971 8.13534 
17.2782 -1.23147 8.13096 
17.343 -1.27132 8.15928 
10.9854 -1.19355 8.14616 
11.0178 -1.13651 8.15507 
17.1877 -1.11388 8.15111 
17.2255 -1.1569 8.14148 
10.9916 -1.02832 8.13704 
11.0301 -1.0796 8.15674 
17.0547 -1.02431 8.11731 
17.1278 -1.08111 8.14894 
10.8809 -0.935712 8.16291 
10.9174 -0.974866 8.12895 
16.9603 -0.92628 8.14439 
17.0336 -0.968419 8.17051 
10.766 -0.819487 8.13999 
10.832 -0.87324 8.1207 
16.87 -0.8315 8.17342 
16.94 -0.8823 8.18982 
10.5979 -0.717252 8.14907 
10.6596 -0.772459 8.14364 
10.7075 -0.788927 8.11168 
16.6978 -0.717348 8.1162 
16.7662 -0.75015 8.1371 
16.8117 -0.787464 8.1348 
10.5769 -0.649731 8.16023 
16.6374 -0.635081 8.14033 
16.7231 -0.675343 8.19623 
10.4467 -0.543509 8.13283 
10.5368 -0.584739 8.12222 
16.4806 -0.528938 8.12926 
16.5412 -0.561209 8.14863 
16.6023 -0.581498 8.17158 
10.3169 -0.421988 8.12481 
16.3836 -0.420353 8.11926 
16.4335 -0.462494 8.14494 
10.1959 -0.30462 8.17558 
10.2567 -0.357727 8.1416 
16.2742 -0.354667 8.14497 
16.343 -0.372076 8.17644 
10.0854 -0.209716 8.14189 
10.1293 -0.245455 8.14135 
16.1617 -0.231448 8.12712 
16.2215 -0.266321 8.17732 
9.9818 -0.122216 8.15273 
10.055 -0.185637 8.1473 
16.0582 -0.162391 8.13596 
16.1281 -0.181247 8.19612 
9.86872 -0.025568 8.15597 
9.93066 -0.078542 8.15485 
15.8754 -0.0134773 8.1233 
15.9588 -0.0515992 8.13523 
16.0178 -0.0904762 8.16641 
9.76616 0.0725897 8.13786 
9.82485 0.0144691 8.1465 
15.7918 0.0759162 8.12341 
15.8406 0.0332974 8.15775 
9.68367 0.17294 8.16716 
9.72642 0.121679 8.1373 
15.6572 0.187356 8.15119 
15.7524 0.125793 8.14196 
9.58507 0.283086 8.15515 
