ply
format ascii 1.0
comment Created by CloudCompare v2.11.1 (Anoia)
comment Created 2026/6/3 下午7:18
obj_info Generated by CloudCompare!
element vertex 1885
property float x
property float y
property float z
end_header
24.4623 -0.607535 11.5944 
24.6349 -0.402581 11.3533 
25.3013 3.52937 0.620549 
18.0578 1.58978 1.22116 
25.3074 4.22648 1.99545 
26.4282 2.01002 4.06876 
21.7813 2.32463 4.67805 
26.448 2.02798 6.03669 
26.8353 1.87608 5.75902 
26.2377 2.08562 9.02211 
26.0983 3.53368 0.615569 
21.3279 6.39494 0.396792 
16.6862 -1.82271 0.797516 
23.302 3.3953 0.802439 
22.8397 4.16099 1.68402 
23.5103 3.97183 1.59327 
24.2778 4.00743 1.80568 
17.0646 0.668431 2.43809 
21.8477 3.30708 2.58551 
25.8705 1.89454 5.0813 
22.8863 2.20453 5.12413 
26.1316 1.89325 5.81168 
24.7823 1.72204 8.65946 
24.7886 -0.300801 10.9818 
24.6798 -0.345965 11.3275 
15.9825 1.25353 0.624425 
23.2976 5.17217 0.393895 
23.2467 6.60535 0.420291 
23.3408 3.42501 0.823101 
26.08 1.77369 5.40901 
23.0349 6.62506 0.345818 
23.2522 6.61451 0.392033 
25.9926 3.58708 0.763432 
23.0328 4.16606 1.71234 
21.6072 2.1341 5.09469 
24.0848 5.20007 0.438886 
15.8126 -1.80148 1.8083 
22.6671 4.15955 1.65833 
24.7631 4.36956 2.43434 
26.9097 1.7719 4.76693 
21.6356 1.6703 5.6361 
26.1611 2.13828 6.05235 
26.3548 2.01328 6.70885 
26.3247 2.0322 7.38796 
25.9926 2.21872 7.90648 
26.2465 1.8193 11.1379 
15.5901 -7.40674 0.372609 
17.7815 0.048014 0.610618 
24.4133 3.768 1.26374 
24.2628 3.98218 2.59375 
21.79 2.36419 4.52189 
23.9714 1.88393 5.93226 
26.4027 1.82888 11.1508 
22.8799 6.60998 0.400934 
15.9832 -1.79908 1.31152 
25.9784 1.7752 5.49367 
25.3139 2.17136 5.00777 
21.6194 1.54788 5.73705 
27.0066 2.06252 7.77038 
26.8469 2.1473 8.16428 
24.8913 1.57858 8.84368 
26.829 2.05502 10.0009 
25.6234 3.64347 0.507372 
18.8008 1.55569 2.78568 
21.7794 5.10464 0.399186 
23.9543 5.20523 0.437398 
24.5762 5.05515 0.602318 
23.174 6.54398 0.606517 
27.378 3.312 0.82405 
24.6824 2.1994 3.45459 
26.8749 1.70261 4.82952 
26.3602 1.80861 5.48532 
26.0028 2.14095 6.45972 
26.171 2.05413 7.31838 
25.9519 2.18509 7.80669 
25.985 2.16744 6.03279 
24.7937 1.04914 10.5355 
23.5439 5.22026 0.393761 
26.6918 3.47402 0.744916 
26.3323 3.5901 1.03078 
22.5516 4.12717 1.51705 
25.9796 3.76064 1.4104 
21.9628 3.15126 2.68582 
25.3543 2.14237 3.56601 
25.8701 1.83466 5.32103 
21.1847 2.2078 5.00818 
22.5824 2.18092 5.1298 
21.6179 1.4658 5.8145 
27.0838 1.91647 6.58826 
26.8956 2.01464 7.23707 
26.7075 2.17536 7.96603 
24.237 -1.00628 11.4923 
26.8602 3.40431 0.503089 
21.8271 6.50346 0.398685 
25.0631 2.21542 4.7831 
25.8699 1.80472 5.4409 
25.0312 3.82015 1.30252 
24.1261 2.16963 4.99743 
24.7312 0.796277 9.68054 
23.1405 6.51506 0.576377 
23.5642 3.61569 1.10305 
22.7475 4.14013 1.57399 
24.2826 3.99718 1.82306 
24.6849 3.99793 1.60819 
26.7056 2.10457 4.39191 
25.6638 2.1947 6.63778 
17.8494 0.129623 0.616579 
22.2123 2.01667 5.43387 
27.4134 1.68331 5.01804 
26.3008 2.31249 8.59942 
23.668 5.23924 0.401567 
24.7405 3.63311 0.982074 
25.6156 3.71138 1.1485 
26.2762 3.60115 1.04764 
22.2138 3.02529 2.75998 
21.3753 3.83945 2.28923 
22.518 4.35721 2.33759 
19.9654 1.98767 4.87586 
24.7941 2.06914 4.84901 
26.1475 1.99095 4.44388 
22.5687 2.20038 5.11469 
25.6947 2.20882 7.30571 
18.1325 2.00127 1.59156 
24.0979 2.23785 3.40523 
21.9844 2.86982 2.82062 
25.783 2.18438 7.33624 
23.0235 1.58271 8.00476 
22.5786 6.56949 0.424065 
18.6193 1.76202 1.04288 
21.382 3.31975 2.57809 
25.2741 4.34406 2.2678 
25.4933 1.98254 4.01545 
26.6459 2.11683 4.4236 
25.252 2.16379 5.25344 
24.8594 0.99698 9.57906 
24.7036 0.271294 10.7833 
24.1631 -1.87917 12.1454 
24.7275 5.11979 0.396241 
25.0561 3.76352 1.2123 
17.9899 2.01846 1.77276 
20.6091 0.550424 8.57693 
24.1966 -1.78926 12.1854 
24.9746 3.40027 0.52236 
26.5465 3.44405 0.544177 
26.241 3.51782 0.648844 
14.8469 -5.98936 0.800982 
22.8561 4.13056 1.58633 
24.0343 4.05116 2.37453 
25.8197 2.17175 7.33611 
25.7343 2.23061 7.99744 
20.0057 3.34599 1.74434 
23.9977 4.03552 2.37247 
15.272 -6.64726 0.374364 
21.8011 5.10672 0.439173 
24.824 5.10639 0.418523 
23.6174 3.97284 1.68028 
25.2738 2.15796 3.67186 
26.9611 1.70583 5.03063 
25.5664 1.91505 5.97104 
27.3168 1.65171 5.81887 
24.2049 -1.72788 12.2195 
15.2572 -6.58061 0.354412 
21.9932 2.96993 2.75952 
27.1023 1.70122 5.01043 
24.6964 1.7329 8.59345 
23.2241 5.20967 0.39986 
25.1457 2.21176 3.59135 
25.2714 2.196 8.31227 
24.2096 -1.02003 11.6009 
24.3125 -0.992887 11.0828 
26.3963 3.45259 0.491617 
23.4571 6.60465 0.377726 
22.7979 3.4469 0.885424 
23.6527 3.67135 1.20258 
23.3284 3.97826 1.50251 
24.7128 2.21702 7.79509 
25.0091 3.72866 1.1459 
21.4759 3.15208 2.62792 
24.9006 4.34328 2.42371 
27.3414 1.55964 3.54212 
23.3935 3.61976 1.08709 
16.916 0.59012 2.50601 
17.2059 2.46885 0.51564 
23.5981 3.6983 1.23986 
23.3383 4.01872 1.58982 
18.8394 1.69911 2.70917 
21.3683 2.6341 2.75259 
21.424 2.68719 2.75857 
23.6214 2.3264 3.39455 
24.7376 0.197809 10.36 
24.2013 -1.81583 12.3273 
27.0204 3.34429 0.514566 
16.9564 0.353241 1.24835 
27.0894 3.37661 1.00071 
27.0391 3.42051 1.7624 
25.3714 2.02786 4.04491 
25.2136 2.15988 3.80032 
26.7267 1.92378 5.8046 
15.0836 -5.93763 0.365587 
23.6864 3.99226 1.81627 
18.7976 1.69197 2.69497 
23.1234 4.42152 2.43463 
26.3191 2.11876 6.02027 
26.4114 2.05467 9.95201 
24.2313 2.14119 4.93688 
24.1928 -1.03803 11.6391 
25.6246 3.56683 0.594613 
26.0029 3.53782 0.501784 
22.2279 6.507 0.711336 
23.3575 4.01393 1.60662 
25.7026 2.02154 4.05385 
26.1745 1.80538 5.28952 
24.7426 0.144458 10.7922 
24.1877 -1.88921 12.3785 
17.92 0.2136 0.61245 
25.7436 3.58043 0.640212 
25.9673 3.53999 0.469427 
23.7252 5.23604 0.398981 
22.202 1.59677 5.95304 
26.8994 3.40081 0.620598 
25.4555 3.5469 0.631054 
17.9773 1.55807 1.26017 
26.9064 3.42573 0.916764 
26.4506 3.56384 1.13155 
26.6189 3.51471 0.898901 
26.335 3.64542 1.53194 
18.3943 1.20053 2.97759 
26.8124 1.74528 3.3809 
25.5216 2.04822 4.09829 
19.4113 1.81813 4.9844 
26.4483 1.99235 6.66859 
20.9778 6.24511 0.608216 
20.6885 2.73284 0.800092 
26.4239 3.61662 1.56232 
26.7617 1.75504 3.36934 
26.7834 1.75156 4.75348 
26.1709 2.23874 8.67221 
20.0097 3.39791 1.81169 
22.8607 2.30695 4.60492 
27.0093 1.94845 6.6864 
24.1861 -2.44101 12.698 
25.4029 5.01419 0.414954 
19.4174 1.99955 4.76198 
20.8035 2.02868 5.26356 
27.3068 1.74369 6.01524 
26.7903 2.15321 8.0058 
24.7787 -0.0772522 10.7935 
24.1695 -2.27704 12.675 
17.7219 0.394917 0.917911 
26.1789 3.69309 1.48682 
26.3067 1.93265 3.31874 
24.5873 3.32413 0.42137 
26.265 1.98219 4.47593 
26.4822 1.80006 5.39202 
26.1897 2.05892 6.70432 
24.5902 -0.470293 11.0712 
25.6584 3.89323 1.49442 
26.4457 1.85511 10.922 
14.9522 -1.73733 0.375111 
27.0414 3.36794 0.645219 
27.3708 3.28601 0.599394 
25.0051 5.05441 0.453662 
27.1485 3.36135 0.94929 
27.4922 3.24097 1.01678 
20.0605 3.40261 1.78291 
27.1388 3.39649 2.16508 
26.7531 3.60647 2.47009 
27.023 1.67158 3.39327 
25.7275 1.90486 5.23409 
15.0075 -1.65518 0.346541 
19.6123 2.04615 0.802154 
27.1101 1.64375 3.40125 
24.4492 2.22462 4.50549 
25.3614 2.28638 8.13694 
24.7911 0.944189 9.56781 
21.4002 4.89285 0.740061 
25.8629 2.02926 3.33013 
26.0721 1.97339 3.36318 
26.234 1.80257 5.32016 
24.1814 -1.91449 12.4101 
25.9522 4.84206 0.325406 
25.9939 1.98697 3.37799 
23.9915 2.25677 3.43959 
25.644 2.18459 3.16997 
25.9918 1.96903 3.8515 
23.6107 1.78825 6.02366 
24.3038 5.20402 0.406073 
24.1243 3.97826 1.8081 
25.5721 3.94311 1.60369 
26.405 1.88447 3.8793 
19.429 1.79615 4.99927 
26.7842 3.37905 0.500426 
24.3944 5.20354 0.374278 
25.6914 3.92687 1.63247 
24.2116 2.21804 3.47591 
25.1037 2.19799 3.77495 
26.4677 1.89531 10.7518 
18.2503 3.19776 0.363072 
25.2636 5.02373 0.400574 
26.8637 3.51815 2.02938 
27.0282 3.44451 2.47729 
26.7307 3.6008 2.39868 
23.6474 2.32572 3.40773 
24.7762 1.04875 9.95992 
25.2288 5.02611 0.396979 
17.8015 1.98847 2.57729 
26.9729 3.46852 2.6334 
24.5838 2.19457 4.48681 
23.5208 1.60462 8.47419 
25.0052 1.73229 8.76954 
25.5365 4.96969 0.37728 
17.4006 0.323002 1.0191 
17.9474 1.62365 1.34157 
23.7642 4.01128 2.23863 
25.8002 1.98141 5.89494 
26.9569 2.08121 7.79137 
24.3841 -0.819418 11.3531 
25.239 3.39876 0.432866 
25.6904 4.94148 0.36743 
23.6346 6.60088 0.350018 
23.5593 4.01713 1.81218 
22.6978 4.41527 2.40171 
25.9758 1.98463 3.41772 
26.1389 1.94871 4.71648 
26.9321 2.09056 7.80186 
26.7934 2.19564 8.72116 
24.1667 -2.0137 12.4529 
17.2663 2.37946 0.512189 
24.5966 3.47969 0.72108 
25.984 2.22517 3.05851 
26.0563 2.12711 6.39886 
19.1891 2.14838 1.25403 
25.3992 1.92208 5.98884 
24.1701 -1.1112 11.5846 
23.4579 6.60371 0.415994 
17.8504 0.374698 0.812029 
26.8887 3.44146 1.05636 
26.9 3.45381 1.57638 
26.7386 3.54422 1.89431 
26.6584 3.59772 2.44071 
23.2388 4.4226 2.2763 
25.5874 1.99607 3.8898 
26.4726 2.03243 5.9284 
17.9799 3.40361 0.501968 
18.6505 1.31235 0.739537 
23.462 3.39963 0.804373 
26.7902 1.84751 10.7998 
19.9733 2.00581 0.519993 
19.3052 2.16099 1.16882 
18.4297 1.19833 2.79311 
26.8463 3.60707 2.50835 
25.6056 2.17146 3.21603 
24.4217 -0.803186 11.1659 
27.1298 1.84904 4.56941 
21.4374 1.94994 5.36065 
21.5994 1.42879 5.83841 
25.8727 2.10927 8.61176 
26.0716 2.06289 9.92281 
24.4348 -0.779705 11.1798 
14.9362 -2.21591 0.38162 
26.5627 3.46813 2.67193 
25.3046 2.2177 3.25337 
25.4615 2.00372 3.9987 
14.969 -2.19158 0.342225 
23.3064 3.75201 1.20125 
26.1699 3.72972 1.61874 
26.4364 1.86053 3.36281 
24.4347 2.20851 3.43369 
24.8533 1.80117 8.60455 
27.1227 3.36765 1.85011 
27.3288 3.26644 1.68027 
21.7756 2.86256 2.76792 
27.0617 3.43642 2.33367 
23.1942 4.39517 2.39741 
25.423 2.20021 3.1975 
26.7613 1.91225 4.51225 
26.4754 2.23592 8.03278 
27.2112 3.33522 1.95553 
23.1515 4.38601 2.47456 
25.5267 2.18711 3.15925 
25.7566 2.00836 9.82856 
24.8019 -0.130515 10.7525 
18.2472 3.20235 0.365578 
17.019 0.358908 1.22307 
23.3306 4.31067 2.41167 
24.7843 1.83287 8.53546 
24.6471 -0.408828 10.9515 
23.4202 4.27299 2.38023 
25.5825 1.87251 5.44821 
24.0732 -1.26568 11.7316 
27.0865 3.39805 1.78351 
23.2008 4.38561 1.99033 
24.1497 3.18589 2.71606 
20.0001 2.0818 4.79009 
23.4762 1.79871 5.98004 
24.1453 1.74354 8.42568 
23.2111 4.39007 2.00145 
18.9785 1.81134 2.70126 
24.2928 1.76938 8.41976 
24.8222 -0.253602 10.9406 
25.5164 3.60983 0.60656 
16.7988 0.212436 1.24082 
23.3394 5.20058 0.720492 
26.3915 3.56423 2.35243 
16.9949 0.429263 1.31526 
25.4357 1.99616 4.38853 
25.5232 1.97811 5.33907 
24.1845 -1.77953 12.2598 
27.2232 3.33852 1.02572 
27.4289 3.23635 1.26017 
27.3054 3.30055 2.12138 
27.0283 3.51296 2.81174 
25.7786 2.01278 3.95122 
26.0141 1.93259 3.78565 
24.7688 -0.218485 10.784 
27.2159 3.32154 0.63882 
27.3809 3.2534 1.32278 
25.8536 2.0097 3.94443 
22.2145 1.28588 7.99248 
26.6364 2.20063 8.01278 
19.8933 0.337155 9.62186 
16.7856 0.195935 1.23482 
26.4125 3.63836 1.74018 
26.4956 3.57488 2.36969 
26.7479 3.55702 2.6047 
25.3681 2.18253 3.28095 
26.7503 1.81615 4.68948 
24.1415 -1.11064 12.0052 
21.4278 1.2081 5.99969 
23.1841 1.35916 8.64807 
27.4388 3.26572 0.518447 
20.2137 2.59682 0.864455 
27.5446 3.19551 1.05063 
25.6132 4.00337 1.6774 
27.205 3.4242 2.31401 
27.4066 3.27458 2.21988 
27.1255 1.74575 3.89503 
25.0221 2.21106 3.80571 
27.0533 1.84033 5.96804 
26.0166 2.00603 3.33122 
27.2122 1.67043 5.2843 
25.8512 2.19296 6.61446 
26.6853 3.55183 1.78841 
20.7133 3.2148 2.62336 
24.2066 3.04645 2.78308 
23.6528 4.03158 2.19881 
24.0561 3.94541 2.40642 
21.4395 2.20787 5.00647 
25.5232 2.29521 7.99943 
26.7632 3.4791 1.02043 
18.9346 2.01599 2.62491 
20.8517 3.21363 2.62916 
21.4513 2.21439 4.99486 
26.7895 3.48079 1.44712 
25.6151 2.08907 3.4115 
26.7533 1.74829 3.43973 
24.8307 2.15184 4.39119 
24.0994 -1.2333 11.9975 
29.7539 2.59381 0.411138 
27.6679 3.1694 0.522372 
29.3755 2.89021 0.447009 
29.4049 2.82728 0.411723 
27.7555 3.09379 0.87029 
27.485 3.29507 2.44993 
23.7149 3.78873 2.41621 
26.2939 3.60788 2.31264 
23.277 4.39794 2.28815 
27.518 1.41866 3.4507 
23.9407 3.00537 2.81117 
26.9906 1.71893 3.91763 
27.3938 1.54838 3.76103 
27.1346 1.7752 4.56773 
24.6396 2.20373 4.537 
26.8378 2.17886 8.75801 
26.8297 2.18637 9.36172 
27.819 3.06229 0.821516 
26.0306 3.80628 1.77768 
27.1436 1.69153 4.03042 
27.4013 1.54677 3.7923 
27.3817 1.58431 5.38041 
27.349 1.63175 5.7722 
17.3933 0.346855 1.05383 
25.7265 1.90722 5.19815 
26.5529 1.98015 6.50937 
26.8005 3.5328 1.95319 
19.4031 2.19554 4.36244 
24.2023 2.12679 5.00112 
25.4493 5.01752 0.390905 
27.8545 3.05067 0.784062 
24.0286 3.00448 2.82549 
27.399 1.55265 3.82388 
24.7677 0.361878 10.1754 
24.1742 3.38762 0.606658 
19.6416 3.38106 2.60434 
25.3933 2.00151 4.39496 
27.2069 1.76629 4.52514 
21.3922 1.53481 5.68485 
26.9154 3.45477 1.63218 
21.1856 3.26959 2.54582 
23.6435 3.80301 2.44826 
27.0146 1.71261 4.67329 
22.6763 2.39535 3.79914 
26.7134 1.94339 6.85148 
22.2004 1.21912 8.64724 
24.013 5.2225 0.397786 
23.6745 3.59797 2.59509 
29.842 2.45969 0.402566 
17.7753 0.317584 0.799343 
26.242 3.71045 1.73855 
23.713 3.93014 2.27924 
27.3987 1.49911 3.39874 
29.8657 2.41476 0.388906 
27.4964 3.33181 2.60184 
27.2205 1.67148 3.8751 
24.7507 2.08491 4.78209 
26.1934 2.05406 6.84081 
23.0148 1.44493 8.5382 
19.3986 2.27635 1.17449 
18.7564 1.80187 2.63555 
25.4578 4.19071 2.5499 
23.9979 3.06847 2.77953 
22.2183 1.16619 8.72123 
29.9247 2.2643 0.375226 
27.6509 3.13488 1.07814 
27.6036 3.11739 1.60132 
24.9134 4.00069 1.59843 
27.1195 3.47509 2.66197 
21.198 3.79805 2.26987 
24.0966 3.98881 2.39404 
26.9528 3.57588 2.49054 
21.3742 1.9092 5.40445 
24.9608 1.18873 9.28537 
24.8772 -0.210851 10.4476 
29.9543 2.18907 0.368387 
27.682 3.07349 1.55067 
27.2094 3.47425 2.62868 
27.0036 1.80629 3.85078 
29.283 3.03828 0.472833 
18.7189 1.96468 2.58129 
27.9154 1.15942 3.28081 
27.3978 1.76296 6.45048 
27.2945 1.86226 8.99529 
27.3451 1.80272 8.72772 
24.8751 0.957518 9.39589 
27.0896 1.95681 9.36922 
24.5941 -0.759906 10.7652 
26.4388 1.90473 4.56184 
19.406 2.19956 4.41926 
21.5764 1.00211 7.3039 
27.2084 1.9266 9.29984 
24.5868 -0.73471 10.8094 
22.8009 3.89744 1.18006 
27.4469 3.20837 1.71963 
23.6029 3.27301 2.71328 
27.3867 3.30515 2.25947 
25.6155 1.98704 8.77692 
24.7394 -0.466066 10.7239 
28.0208 3.02981 0.422775 
20.2352 3.59392 1.84817 
26.5131 3.61211 2.40155 
27.6834 1.31273 3.35777 
27.4335 1.49802 3.30174 
27.5815 1.36975 3.6191 
27.4772 1.48548 3.913 
27.4207 1.56837 5.31531 
27.4036 1.61877 5.89899 
25.6126 2.15112 6.20035 
27.0745 1.95396 7.33212 
27.0565 2.03237 7.97032 
27.101 2.01243 8.80059 
27.0963 2.02205 9.31174 
27.8519 3.11236 0.376953 
24.8482 4.13505 2.71659 
26.6315 3.58171 2.38482 
25.4 4.28221 2.29081 
27.236 1.77505 4.78167 
27.2062 1.83057 6.11077 
27.4169 1.5849 5.85307 
27.0688 2.03746 8.76814 
18.7375 2.01913 2.56069 
26.3798 3.42477 2.56448 
24.928 2.19216 3.78736 
25.5913 1.96313 8.76132 
27.8217 3.11509 0.461401 
24.081 6.58625 0.306261 
28.4584 2.43008 1.82735 
26.5208 3.60835 1.81073 
29.0203 2.03258 2.37981 
28.5205 2.3704 2.46088 
28.8098 2.24 2.60742 
23.7062 3.79196 2.38369 
26.5211 3.60056 2.35531 
24.8057 0.326818 9.99267 
23.95 6.58771 0.307036 
26.5694 3.58922 1.81741 
27.1598 1.65391 3.18222 
25.416 2.11715 3.61687 
27.1379 1.79106 5.9206 
26.1145 2.34141 8.48195 
26.8099 2.19449 9.1468 
26.9922 3.43213 2.3186 
15.1368 -1.10144 0.456089 
23.4479 5.22475 0.611555 
28.1706 2.74819 1.31968 
28.0744 2.85794 1.04347 
28.4084 2.48217 1.76515 
25.6433 4.07566 2.36752 
24.9731 1.59878 8.79943 
24.3529 -0.919256 10.9963 
15.1448 -1.16425 0.396335 
26.712 3.50485 1.21045 
25.5343 4.21268 1.99778 
21.2943 3.76565 2.1981 
27.2153 1.6485 3.11228 
19.7506 1.83037 4.98795 
26.0031 4.84236 0.449785 
20.952 3.22995 2.59443 
23.4835 2.97363 2.83988 
20.4592 0.536325 9.90807 
18.8199 2.38782 1.82412 
27.1919 3.39548 2.2394 
25.356 2.01607 5.445 
28.3751 2.58787 1.23706 
22.8137 3.9167 1.20576 
28.6218 2.30739 1.75785 
25.9943 3.81694 1.65316 
26.3132 3.35299 2.51986 
25.7792 3.98951 2.23263 
26.0673 3.77418 2.25679 
27.3352 1.66408 4.36568 
26.9419 2.13133 8.84881 
28.416 2.55581 1.22054 
20.2124 3.33822 1.56545 
28.6036 2.31992 2.46598 
23.5803 3.59822 2.58038 
25.8372 3.95244 2.17573 
25.9718 3.83669 2.23711 
27.0483 2.00085 7.3403 
27.0059 2.07749 8.56561 
20.6974 0.598142 9.6831 
24.7682 0.621903 9.59663 
27.473 3.1964 1.72342 
25.0718 4.22416 1.99945 
23.5375 3.19433 2.73243 
26.4169 3.40182 2.58298 
27.246 3.43736 2.47732 
25.9918 2.17833 3.10644 
24.1237 -1.95215 11.9601 
28.4081 2.64107 0.970172 
28.7874 2.22341 1.19165 
27.0054 3.40981 1.04896 
28.9045 2.07476 1.96206 
28.8586 2.13417 1.59856 
28.6705 2.31004 2.61049 
28.813 2.1865 2.37456 
27.5981 1.36973 3.38432 
27.4866 1.501 3.15324 
27.4386 1.5922 4.52348 
27.3543 1.74864 6.71281 
27.1709 1.85546 7.41045 
27.3174 1.76204 7.09545 
27.1954 1.91265 8.05552 
27.1607 1.96166 8.74867 
22.0125 0.929093 9.18644 
20.6647 0.51759 9.97614 
24.2166 -1.05098 11.3478 
24.2105 3.39543 0.608576 
27.5298 1.4507 4.03845 
26.4236 1.86622 4.63999 
27.2275 1.87365 6.44944 
27.3399 1.74386 6.80026 
27.2593 1.8225 7.45653 
27.229 1.88427 8.06356 
22.0985 0.850906 9.21978 
27.153 1.98538 9.40665 
25.9967 3.66287 1.07378 
28.4054 2.40929 2.54471 
23.556 3.86951 2.35812 
25.4038 2.12721 5.01643 
26.8048 2.20464 9.20382 
28.2646 2.46015 2.49376 
25.5195 2.00303 5.25259 
25.4394 2.1138 4.984 
28.4185 2.74362 0.652213 
28.2364 2.89617 0.471045 
28.799 2.26226 0.98646 
28.8157 2.23112 2.56489 
26.4008 3.3503 2.62251 
26.3779 2.00356 3.18997 
27.7536 1.22563 3.87249 
27.7569 1.23453 4.54766 
27.8086 1.14054 5.2863 
27.7366 1.25488 5.89995 
27.5635 1.48497 6.13362 
27.5483 1.53457 6.67777 
27.557 1.51088 7.31294 
27.6059 1.45181 8.09531 
27.5428 1.53463 8.77937 
27.5759 1.48935 9.3646 
20.7015 0.519211 10.0476 
20.5106 -0.32757 10.9105 
28.5205 2.59728 0.805287 
28.8028 2.27521 0.918065 
26.4659 2.02213 3.12289 
27.608 1.44792 6.205 
22.8321 1.27498 8.71954 
20.593 -0.18157 10.8919 
28.3822 2.76539 0.653714 
28.8146 2.21777 1.12856 
27.9798 2.79598 2.02333 
27.8321 2.93741 1.78911 
28.5222 2.07719 2.76619 
28.2521 2.44122 2.39699 
23.6037 3.07594 2.7689 
27.0664 1.98894 7.89804 
24.279 -1.01212 11.1245 
16.5972 0.0636234 1.30341 
27.8987 2.87651 1.86117 
26.1866 2.08348 9.00147 
21.9934 0.886875 9.26643 
24.1968 -1.12346 11.1622 
24.8003 -0.368356 10.793 
20.7209 4.82163 0.395414 
22.7882 6.60012 0.430592 
28.2453 2.39894 2.4329 
27.7208 3.07136 2.38852 
20.2121 3.76068 2.42173 
27.865 1.11252 3.87174 
27.9114 1.02742 4.57118 
27.9345 0.983234 5.29814 
27.8808 1.07207 5.99001 
27.8329 1.16401 6.65049 
27.8131 1.19492 7.3203 
27.8417 1.1412 8.02425 
27.8945 1.04506 8.74129 
20.0212 0.392177 9.60147 
27.9089 1.01734 9.18775 
20.1001 0.602161 10.1662 
20.6399 -0.095288 10.9622 
20.0561 0.576999 10.6039 
20.8211 3.84289 2.33153 
27.8 1.23457 3.34777 
27.9335 0.997837 4.57454 
27.9015 1.04596 6.00288 
20.0892 0.620708 10.6004 
27.7971 2.99186 2.34168 
22.977 1.41354 8.60996 
20.8164 0.631128 9.60996 
21.613 0.999621 9.15312 
25.9877 2.0398 9.14947 
20.8105 0.502057 10.0502 
20.1058 0.642563 10.5987 
16.0375 0.935733 0.340309 
30.8008 1.06577 0.622819 
28.9133 2.07904 2.1717 
28.7944 2.2111 2.80482 
27.7624 1.1997 5.28507 
27.6106 1.45057 6.15888 
27.603 1.46183 7.38014 
27.6072 1.44673 8.77069 
24.759 3.42034 0.594612 
23.3946 3.07821 2.78245 
26.7653 1.69936 4.80371 
27.7348 1.23429 5.28293 
27.6041 1.45036 9.35259 
29.3711 3.06297 0.398981 
27.861 2.89739 2.23703 
21.1833 1.18118 5.94486 
19.9764 0.404415 9.64795 
20.5422 0.349856 10.8548 
20.2321 4.61506 0.615173 
28.1963 2.41603 2.45536 
20.5844 0.186464 11.0119 
28.4618 2.56034 1.07388 
23.4669 3.67741 2.52314 
27.616 1.34993 3.73819 
19.7082 2.21283 3.98755 
22.0599 2.42318 3.76215 
21.2339 1.14821 5.99119 
27.6232 1.35059 5.78625 
27.4747 1.60837 6.09611 
27.4521 1.65667 6.66368 
27.472 1.61034 7.32383 
27.4504 1.64579 8.06677 
27.4198 1.7098 8.75836 
21.179 0.578264 9.79364 
27.4174 1.71772 9.32113 
27.4596 1.59828 9.98498 
23.4033 4.23969 2.03626 
26.6717 1.81645 3.28263 
19.655 2.21458 4.00281 
27.5912 1.38003 5.75772 
27.3814 1.76356 8.75653 
27.3707 1.78456 9.31327 
20.4066 0.716418 10.6099 
27.6008 3.20274 0.480956 
27.6201 3.16137 2.45354 
28.2948 0.676155 3.44961 
28.2502 0.760125 3.32108 
28.3536 0.564084 3.81791 
28.7233 -0.130197 4.75064 
28.5505 0.194125 4.3347 
28.675 -0.0439345 5.23898 
28.7053 -0.0985669 4.99829 
28.6122 0.0706309 5.52149 
28.5393 0.20329 5.92869 
29.1528 -0.542493 6.85836 
28.4662 0.334082 6.61567 
29.3704 -0.918473 7.54717 
29.0986 -0.451747 7.37929 
28.4226 0.41011 7.28933 
29.108 -0.469722 7.84527 
28.4717 0.313948 7.96487 
20.5944 0.620187 8.5807 
28.5675 0.129928 8.76 
26.1978 2.116 3.11085 
19.7657 1.81033 5.0129 
26.8039 2.10942 7.57261 
20.6003 0.290986 10.86 
29.1975 3.10541 0.499442 
28.113 2.94889 0.567854 
28.2405 2.71061 1.20134 
28.0875 2.87791 0.921954 
28.3151 2.56694 1.71866 
27.0935 3.43515 2.19035 
25.4254 2.20766 3.2467 
21.9094 0.994404 9.1982 
20.6019 -0.384232 11.3276 
22.2014 2.46862 3.34777 
22.9332 2.99442 2.85828 
20.9892 2.40037 3.81612 
20.6954 -0.220135 11.0007 
28.9473 2.05706 1.24388 
20.7361 3.11718 1.15816 
27.3815 3.35782 2.43512 
23.5515 3.00554 2.82065 
27.7891 1.19595 3.80081 
27.7564 1.26498 6.66074 
26.2628 2.03759 6.82601 
27.7387 1.29185 7.37585 
26.8237 1.99158 7.23317 
27.75 1.26349 8.04831 
22.5004 1.1463 8.75537 
27.7594 1.23373 8.77478 
27.7886 1.18584 9.31088 
21.2155 0.553536 9.90124 
27.9327 0.837065 10.077 
20.6573 -0.103606 11.0583 
20.5787 0.470949 10.7223 
15.0714 -1.23216 0.404509 
26.7708 3.40798 0.538218 
21.4348 5.01469 0.641116 
20.1923 3.00524 1.15932 
23.3854 3.62948 2.5769 
27.7977 1.17671 5.96141 
22.4505 1.05313 8.83416 
27.7485 1.242 9.35192 
20.828 3.64349 1.90836 
28.1572 2.54433 2.38375 
28.4631 0.413211 3.82059 
26.3068 1.92702 4.61806 
28.6737 -0.0316345 5.40956 
28.7263 -0.126822 5.1159 
28.582 0.141416 5.95282 
28.4509 0.372775 7.29701 
28.4825 0.297084 8.01828 
20.4112 0.580516 9.47118 
28.5807 0.0805756 9.10701 
20.7328 -0.473158 11.4026 
21.0175 3.40603 2.49049 
28.3749 0.586375 3.44006 
28.4813 0.388065 3.82104 
28.6144 0.104867 4.27679 
20.7205 -0.455299 11.1312 
26.0348 4.8492 0.392799 
28.3181 2.67526 1.11539 
20.8648 2.9931 1.01317 
22.8106 4.44237 2.40707 
29.7279 -1.54666 6.47857 
29.3447 -0.848896 7.70938 
20.5355 0.577451 10.5895 
26.1271 3.49222 0.376954 
27.2301 1.86048 6.6197 
27.2223 1.86278 7.3287 
29.2011 -0.583647 7.87394 
20.5908 0.617714 9.63453 
22.2332 4.10987 1.74185 
27.6841 1.35983 6.54791 
27.5867 1.49198 6.82076 
27.5791 1.48521 8.05184 
24.4336 -0.830772 10.9726 
20.6678 0.357998 10.5685 
28.598 2.58186 0.657019 
23.9553 3.37328 0.616639 
27.6269 1.443 6.85767 
27.626 1.43444 7.40666 
20.83 0.582507 9.74452 
28.6067 2.5736 0.658392 
28.6412 2.47171 0.824967 
26.0872 2.20748 3.05847 
20.8097 3.10422 1.14293 
18.9703 2.37878 1.75806 
28.3879 2.03141 2.65788 
29.0422 2.05268 2.44098 
27.9636 2.78912 2.2108 
23.3732 3.0186 2.82109 
28.3045 0.612373 3.86096 
25.17 2.09944 4.17944 
28.3637 0.455761 4.50117 
19.7884 2.22549 4.35815 
28.3569 0.438871 5.29589 
28.318 0.498574 5.97834 
28.2729 0.585098 6.5914 
28.1793 0.725604 6.88051 
28.1641 0.741419 7.291 
28.1591 0.720434 8.04356 
28.2557 0.558996 8.69969 
26.7857 2.18323 8.48857 
28.3306 0.373528 9.3274 
28.4447 0.0080582 10.1914 
20.7468 -0.555887 11.3828 
28.459 -0.271293 11.418 
22.6213 3.11104 0.620207 
26.3374 3.34822 2.60789 
26.2544 2.22196 3.01486 
21.6164 1.93064 5.39267 
28.227 0.644489 6.58403 
24.6051 1.99925 7.248 
28.1854 0.65437 8.70227 
26.8333 2.16677 8.49113 
28.2681 0.446766 9.3825 
28.182 2.85504 0.787287 
28.57 2.09511 2.80657 
29.3358 -1.14893 5.56117 
29.2164 -0.900514 5.60697 
29.0286 -0.521796 5.93766 
28.8874 -0.218003 6.64391 
28.8185 -0.0988377 7.34048 
28.8656 -0.174871 7.93188 
26.4074 2.24369 7.99183 
28.8759 -0.327544 8.64788 
20.5346 0.596268 9.6014 
28.8495 -0.171648 6.61328 
28.7719 -0.0400195 7.33401 
28.7817 -0.0726765 7.94637 
27.1286 1.97577 8.57915 
20.6029 0.607592 9.66898 
19.0889 2.02184 1.05883 
28.7896 2.18098 1.71372 
28.7602 2.2114 2.31213 
22.7354 3.1062 2.7784 
26.8154 1.99796 7.18992 
29.4564 -0.940527 7.83146 
20.7071 0.120362 10.6846 
22.8729 3.11464 2.77841 
28.9259 2.16743 2.54304 
28.159 0.856951 3.38566 
28.1452 0.804849 3.80232 
28.2063 0.645988 4.65009 
28.1582 0.72005 4.49172 
28.1402 0.726993 5.27556 
28.1049 0.779485 5.97897 
28.0659 0.863227 6.71506 
28.0405 0.89667 7.39134 
28.0353 0.883716 8.06567 
28.0034 0.896406 8.72192 
28.1686 0.57025 9.52879 
28.03 0.804955 9.30595 
20.4613 0.56218 10.207 
28.2526 0.308593 10.1864 
20.7652 -0.376333 10.974 
28.9846 2.15205 2.62836 
22.206 4.37306 2.39668 
28.1759 0.681013 4.67931 
20.1926 2.00102 5.06444 
28.0199 0.922545 7.40806 
28.1188 0.631992 9.60194 
20.3846 0.577315 10.2325 
28.1886 0.408772 10.1847 
28.0635 2.61358 2.38877 
29.0041 2.14692 2.6568 
27.8989 2.85998 2.18891 
20.1803 4.60162 0.704958 
27.4713 3.20221 2.17952 
28.5221 0.37308 3.45584 
22.8425 3.01866 2.85779 
28.7743 -0.108353 4.05828 
28.4823 0.378769 3.73216 
28.7178 0.0339352 3.78698 
28.8385 -0.292202 4.5627 
28.8074 -0.246252 5.21123 
28.6975 -0.0192208 6.09981 
28.8019 -0.198113 5.83814 
28.4775 0.288786 6.09644 
28.5646 0.183177 8.07709 
20.6572 0.312213 10.6319 
20.5515 -1.19762 11.3559 
24.1532 -1.16409 11.2779 
28.3825 2.39252 2.38572 
20.936 3.79902 2.33663 
28.7565 -0.133377 5.81823 
28.5765 0.157749 6.15391 
21.9043 1.64313 5.77423 
28.6136 0.143466 6.63256 
20.6397 0.433959 10.572 
20.6401 -1.17383 11.3986 
24.1234 -1.21039 11.2586 
28.7227 2.26853 1.25519 
19.9979 3.08085 1.35148 
23.6344 3.9122 1.56454 
28.8123 2.20117 2.35652 
27.5763 3.1779 2.37145 
29.6664 -1.54869 6.14623 
29.5679 -1.33296 6.20322 
29.5335 -1.26742 6.47392 
28.988 -0.311994 7.48539 
24.2545 6.60223 0.313207 
23.0314 3.02441 2.84272 
29.0961 -0.44798 7.56109 
26.8066 2.04218 7.17582 
28.9964 2.23821 0.49245 
29.1529 3.15022 0.394891 
28.0743 2.73482 1.88618 
27.9176 2.90142 1.57303 
28.0058 2.80486 1.72664 
29.1571 1.90165 2.37441 
28.1071 0.914259 3.41126 
28.1638 0.724648 4.34697 
28.1962 0.652839 5.15506 
28.1529 0.711338 5.44966 
27.0304 2.05525 8.02322 
28.1267 0.629607 9.52766 
28.0696 0.759806 9.21212 
28.2002 0.41371 10.089 
28.3596 -0.0009403 10.7285 
26.1406 3.71593 2.19939 
23.3545 2.88526 2.87497 
28.0894 0.737231 9.1652 
21.1914 6.37359 0.341782 
28.231 2.82746 0.78052 
20.7819 3.29869 2.58967 
26.1626 3.24812 2.58834 
28.7046 0.12419 3.43179 
28.7855 -0.0994404 3.91734 
27.4187 1.61739 4.54278 
28.7658 -0.0639771 6.51814 
28.6605 0.101473 7.34268 
28.9433 -0.307109 8.12721 
28.659 0.0735165 7.99249 
27.39 1.7145 8.07805 
28.7883 -0.203695 8.73195 
28.7552 -0.162369 9.1018 
20.6811 -1.16874 11.4538 
20.579 3.16814 1.19505 
20.8945 3.5902 1.85617 
26.1537 3.2417 2.60677 
28.6711 0.0817527 6.84496 
27.3784 1.7099 7.35023 
28.8387 -0.198128 8.25022 
28.7664 -0.172733 8.75296 
20.5586 0.410297 10.8146 
23.6125 3.34283 0.620407 
28.9024 -0.400706 4.56706 
21.7683 1.21906 6.48299 
28.7864 -0.143638 8.31172 
28.8488 2.13772 1.68211 
27.764 2.97537 1.94171 
27.8367 1.08244 9.45784 
20.6915 -0.191445 11.305 
27.9353 2.72078 2.41417 
28.2703 2.603 1.73328 
29.2558 1.87571 2.58638 
28.459 0.468968 3.44336 
28.4543 0.299745 4.58053 
28.4611 0.280573 5.20943 
21.9855 1.60749 5.84105 
27.2278 1.87259 7.97944 
28.4983 0.223886 8.75234 
27.2171 1.89974 8.56762 
28.5628 -0.0088688 9.48494 
28.6167 -0.163174 9.80398 
20.7147 -0.956057 11.4319 
20.2226 4.59662 0.564388 
20.5372 3.18487 1.20572 
29.2829 1.87805 2.67159 
25.0332 4.005 2.73739 
26.6286 2.20005 7.99078 
28.4099 0.28065 9.23979 
28.5243 2.70146 0.516022 
30.2385 0.195982 2.01359 
30.6409 -0.163532 2.40529 
30.0865 0.465145 2.48293 
30.1626 0.354991 2.37824 
29.0499 -0.213165 3.24926 
20.8622 2.2691 4.66935 
29.593 -1.49346 5.95114 
29.3208 -0.982646 5.97689 
29.5108 -1.30225 6.01715 
29.266 -0.802317 6.47194 
29.0693 -0.450287 6.7158 
29.2812 -0.790279 7.43768 
29.0277 -0.395116 8.02512 
27.7924 1.18565 8.72982 
27.8043 1.14316 9.37301 
20.6097 0.0328108 11.416 
20.1593 3.22182 1.35401 
27.7642 2.99942 1.74556 
23.599 3.79332 2.39373 
29.3417 -0.999072 6.05088 
29.4822 -1.28689 5.92412 
29.2557 -0.755926 7.37443 
24.7706 2.20526 7.50665 
20.6203 0.135928 10.9196 
21.4345 4.99642 0.578237 
19.3279 2.01052 0.9166 
20.2072 3.03344 1.18075 
20.6528 3.21593 1.24044 
29.8234 0.798979 1.86741 
29.9857 0.57138 2.4138 
29.7646 0.908036 2.17196 
29.4297 1.54304 2.36579 
25.107 3.98584 2.72004 
25.5887 4.12215 2.35496 
28.4026 0.417761 6.63765 
28.3924 0.444766 7.3614 
22.1364 1.07002 8.81202 
28.4753 0.140459 9.41005 
28.5991 -0.157566 9.88776 
28.8394 -0.926469 10.8903 
20.5037 0.257346 11.3792 
19.434 2.01939 0.867056 
29.9354 0.624497 2.37924 
28.3958 0.426223 6.63272 
22.2084 1.02145 8.89838 
25.6146 3.61948 0.652767 
20.232 3.08607 1.20451 
25.8643 3.16213 2.64686 
27.8143 1.22259 3.40051 
29.4591 -1.31722 5.74911 
29.2484 -0.784439 6.42037 
20.5584 0.150229 11.352 
20.0423 0.724752 11.3322 
20.464 -0.223468 11.979 
25.3872 1.97762 5.48678 
25.3968 2.32245 7.94229 
21.6258 1.94925 5.40043 
29.2406 -0.776493 6.39746 
20.6063 0.0527242 11.3481 
28.2067 2.83088 0.827311 
29.8183 0.824974 2.16921 
29.4368 1.56374 2.46987 
27.5927 3.17977 2.40124 
23.5289 3.81898 2.42136 
28.3868 0.584636 3.37933 
22.7738 3.04206 2.84802 
28.5195 0.198902 5.25864 
28.5392 0.0634423 9.35622 
20.4755 0.290775 11.4054 
29.8452 0.783442 2.16783 
28.4053 0.561311 3.38788 
28.6136 -0.0922272 9.53908 
20.7483 -0.613945 11.1273 
20.7345 -0.62922 11.3998 
28.6399 2.57645 0.572433 
28.0131 2.823 1.59119 
20.8422 3.75351 2.44296 
27.9596 1.03055 3.70642 
28.0395 0.864002 4.52455 
28.0452 0.845525 5.29431 
28.0406 0.861817 5.93755 
29.4553 -1.13922 6.54193 
26.3739 2.02001 6.59386 
29.5049 -1.29609 7.6437 
29.241 -0.639087 7.97211 
28.3222 0.364045 9.45383 
20.2174 0.76615 10.8836 
20.6649 -0.229197 11.443 
20.0886 0.499772 11.3894 
20.421 -0.386104 12.2041 
28.0163 0.923045 4.01783 
26.4047 2.01331 6.58442 
29.3266 -0.79982 7.77718 
28.2031 0.521918 9.53028 
20.6475 -0.129192 11.4538 
20.1332 0.586556 11.455 
20.3995 -0.467422 12.3166 
30.0126 2.05687 0.434859 
29.4097 2.93758 0.397011 
27.0363 3.40005 0.998827 
30.1439 0.396378 2.41716 
25.8733 3.19588 2.58092 
28.5648 0.359187 3.32466 
28.6263 2.16705 2.80736 
28.7871 -0.212076 4.5741 
22.6359 2.3195 4.60184 
28.7865 -0.211936 5.28205 
28.945 -0.301622 6.56316 
27.614 1.45467 6.63529 
28.7068 0.0333764 7.54917 
27.745 1.27835 7.48292 
29.4129 -2.20796 10.734 
20.1681 -0.333567 12.1562 
24.5698 3.40325 0.575431 
28.5376 2.37448 1.75556 
22.368 4.11228 1.56792 
25.8756 3.20431 2.56443 
28.6046 0.308656 3.30886 
28.7141 0.0173298 3.90371 
28.7706 -0.185128 4.5751 
21.0554 2.35929 4.36353 
22.2622 1.99459 5.47259 
28.8307 -0.153132 6.48036 
28.6844 0.0767263 7.18229 
28.8813 -0.246126 8.24265 
20.5848 0.394089 10.7952 
20.2048 -0.214802 12.1644 
29.1341 1.88583 0.627196 
29.1826 1.75219 1.06114 
29.1897 1.73297 1.74713 
18.6179 2.3064 1.71291 
23.0053 3.87936 2.66764 
28.1747 0.771046 3.79469 
28.3059 0.526706 8.02386 
28.2991 0.283346 9.99687 
28.4377 -0.122526 10.7227 
20.1868 0.534646 11.6002 
20.4049 0.451761 11.38 
21.7229 4.97856 0.418766 
29.2088 1.71832 1.04083 
29.2206 1.69474 1.73264 
21.1679 3.7357 2.01536 
23.0312 3.77428 2.64923 
28.2773 0.620401 4.01609 
28.2064 0.740646 3.75006 
28.2578 0.609795 6.68424 
28.2693 0.603926 7.33789 
22.1507 0.977716 8.96302 
20.3752 0.618856 10.3835 
28.3568 0.195115 9.9945 
20.4345 0.614741 10.9939 
20.2136 0.50869 11.6728 
20.3673 0.530817 11.3742 
18.5537 2.24279 1.58462 
20.8545 3.41783 2.5585 
28.2509 0.605169 4.54744 
22.5202 1.47798 6.39889 
22.2007 0.95562 9.00401 
27.367 1.77293 8.59775 
20.4095 0.651517 11.027 
21.1964 3.16639 1.20365 
30.577 -0.13234 2.3451 
30.3053 0.308508 2.56704 
28.9445 -0.12603 3.31091 
22.2112 2.59169 3.18646 
28.933 -0.312906 3.76713 
29.1789 -0.972669 4.89045 
29.3748 -1.60401 4.96943 
29.171 -0.889835 5.27759 
28.9323 -0.436986 5.41437 
29.0081 -0.345064 7.37648 
27.8648 1.1232 7.43962 
29.2651 -1.21301 8.96158 
29.2743 -1.24088 9.15913 
20.404 -0.322636 12.1596 
23.1848 3.1072 2.78173 
22.2093 2.6088 3.16938 
26.9801 1.7285 3.79848 
29.0113 -0.559118 5.47751 
22.2795 1.6077 6.00378 
28.9839 -0.311612 7.37969 
27.9223 0.95825 9.37796 
20.009 0.569804 11.8418 
29.7768 0.813131 1.02769 
28.4283 2.61159 1.02937 
29.7091 0.979342 1.76272 
29.7452 0.921452 2.24753 
27.7045 1.27805 4.35219 
27.5722 1.45894 4.60618 
27.5319 1.49252 5.08571 
28.8021 -0.72356 10.291 
28.8488 -0.927851 10.787 
20.7569 -0.415979 10.963 
20.1702 -0.110305 12.2286 
15.2056 -0.86283 0.49162 
21.0899 2.38487 3.40056 
21.0373 2.40409 3.79831 
28.5371 0.188002 4.52212 
27.6004 1.43001 4.61566 
20.7371 -0.607005 11.4478 
29.0573 1.92117 1.08957 
29.0802 1.86984 1.74127 
30.4687 0.193395 2.63893 
22.8394 2.46525 3.18434 
25.3714 2.23299 3.19273 
28.3498 0.439268 4.70151 
28.2174 0.620849 5.25646 
29.5232 -1.42641 5.7971 
29.3668 -1.03513 6.05935 
28.2379 0.601749 5.84271 
28.1176 0.764347 6.08742 
28.1376 0.764395 6.63684 
24.7883 1.94526 6.59431 
29.5108 -1.44582 7.59478 
28.1323 0.758449 7.96088 
27.4112 1.6869 7.99279 
27.4487 1.65853 8.55487 
20.1248 0.617047 11.6754 
19.9637 0.389807 11.9535 
27.3786 1.7266 7.98605 
20.1753 0.592646 10.2291 
20.1827 0.640668 11.5923 
20.2261 0.725389 11.2577 
20.4108 -0.470078 12.3014 
28.6055 2.43687 1.02558 
30.2177 0.206887 1.98823 
25.7915 3.22167 2.5891 
28.7178 0.139103 3.34078 
28.8205 -0.14365 3.85515 
28.863 -0.277575 5.95227 
29.1463 -1.06207 9.29914 
29.3455 -2.10175 10.6511 
20.2139 -0.101283 12.2149 
25.7628 3.22326 2.60489 
25.0253 2.00653 6.59517 
28.8384 -0.154999 8.0154 
29.0823 -0.972669 9.36915 
20.2443 -0.122896 12.1921 
29.1482 1.94685 0.491031 
29.3322 1.53387 1.14912 
19.7707 2.40805 0.950543 
29.2891 3.02155 0.727139 
29.3271 1.56616 1.75331 
28.2425 0.809191 3.195 
29.5987 -1.4782 6.00983 
28.3834 0.382281 8.73979 
27.5435 1.53165 8.59836 
28.5599 -0.166866 10.1625 
28.5434 -0.327158 10.8041 
20.006 0.237957 12.224 
29.0278 2.25264 0.376748 
20.8163 3.16906 1.20808 
28.288 0.767107 3.15038 
28.3954 0.388878 5.26171 
27.6055 1.37261 5.407 
22.2866 2.1589 5.19594 
28.3968 0.396871 5.94599 
28.5497 -0.170901 10.2401 
28.4418 0.10044 9.85215 
28.579 -0.402455 10.8461 
20.3947 0.446165 11.4212 
19.9855 0.129148 12.3688 
29.1588 1.99261 0.388908 
21.7509 3.21765 0.979845 
27.5934 1.38669 5.41495 
25.4039 2.02013 5.40663 
22.338 2.14945 5.21966 
29.6654 -1.51925 6.20801 
19.9752 0.0747438 12.4412 
29.9743 2.32015 0.423929 
28.8601 2.19553 1.05533 
20.7939 3.59431 1.8551 
29.0956 -0.7342 4.04361 
28.9769 -0.414154 3.79557 
29.2957 -1.49544 4.61548 
29.2003 -1.11556 4.63276 
29.1231 -0.810092 5.19436 
28.081 0.825246 7.99068 
29.2424 -1.17625 8.98158 
20.6332 -0.214056 11.6358 
30.0087 2.29451 0.431408 
19.1441 3.97561 0.540109 
20.5677 3.25698 1.29478 
23.6048 3.41979 0.783747 
23.0165 4.04593 2.68085 
27.949 1.14395 3.16046 
28.026 1.0281 3.35561 
29.0227 -0.491511 3.77384 
29.2039 -1.13937 4.58981 
29.018 -0.393097 6.66112 
20.5764 -0.141802 11.7341 
29.6436 1.08822 1.77273 
27.9924 2.79226 1.96937 
29.6474 1.09403 2.29824 
29.1518 1.95476 2.50042 
20.8461 3.80161 2.4089 
20.7504 2.26449 4.62308 
28.7463 -0.530022 10.089 
20.6046 0.547216 10.2161 
20.805 -0.379434 10.8775 
28.9661 -1.52731 11.6866 
20.0504 0.057422 12.3568 
28.6053 0.076805 8.76151 
20.813 -0.425398 10.9009 
30.0454 2.30014 0.374486 
29.1582 -0.832008 3.89869 
22.2484 2.32592 4.7139 
29.9605 -3.88776 5.33412 
29.7717 -3.1225 5.32204 
29.365 -1.5214 5.03536 
29.402 -1.63058 5.0392 
29.243 -1.03208 5.32039 
28.2926 0.567741 7.48516 
29.373 -1.41002 8.97338 
29.375 -1.41107 9.23805 
20.0472 0.287003 12.1809 
20.3712 3.80617 2.40495 
29.126 -0.639723 3.63529 
28.1596 0.789243 3.80579 
29.2044 -0.796492 5.92723 
28.2234 0.654937 7.51337 
28.1791 0.728492 7.18519 
28.223 0.636479 8.04532 
20.0267 0.406125 12.114 
29.7909 0.793095 1.07893 
28.1344 2.7095 1.73844 
22.5699 1.80217 5.80013 
28.59 0.173804 6.62138 
27.8491 1.141 6.59654 
28.5927 0.189786 7.32447 
26.2239 2.19849 7.83433 
28.7579 -0.25643 9.29236 
28.8534 -0.830824 10.29 
28.9979 -1.56954 11.5985 
28.6093 2.60696 0.576875 
29.8034 0.772238 1.07647 
21.5928 3.68111 1.57843 
29.9234 0.532049 2.63465 
23.3985 3.95377 2.43173 
25.2149 2.21241 5.11416 
28.6429 0.0664647 6.14756 
22.4995 1.81456 5.75632 
24.6689 2.17001 7.60245 
28.903 -1.06003 10.7904 
29.0138 -1.59065 11.5545 
20.1274 0.132985 12.1421 
19.9045 2.04909 0.607048 
28.2658 2.02075 2.59402 
28.9167 -1.09403 10.8062 
29.0218 -1.6012 11.5325 
29.1354 1.81261 1.2146 
27.57 3.1915 0.995804 
29.2054 -0.877251 3.74113 
28.3632 0.506317 4.0003 
21.4983 2.33155 4.64945 
29.908 -3.77637 5.23215 
29.5686 -2.39536 5.1666 
29.1748 -0.615189 6.66531 
28.339 0.487424 7.99168 
20.7078 0.388079 10.2795 
29.0082 2.22127 0.483869 
19.2162 3.90651 0.415347 
20.4193 4.57865 0.490703 
22.5402 6.58663 0.362476 
29.1494 1.79181 1.2492 
26.1929 3.19617 2.54966 
24.3214 4.15387 2.1925 
29.1081 -0.434135 3.38847 
21.7432 2.40986 4.38583 
29.8817 -3.72067 5.18117 
29.7211 -3.05093 5.17959 
27.3652 1.60092 4.08581 
28.5193 0.230232 4.36715 
21.4319 1.8433 5.46916 
28.6753 -0.0092705 5.79758 
28.5817 0.175444 7.99485 
28.7602 -0.327715 9.42081 
28.7744 -0.555454 9.97003 
23.0163 6.60592 0.47504 
24.4053 6.59191 0.314165 
22.3558 4.20224 1.99843 
20.3941 0.396689 11.5093 
29.1165 2.01383 0.484805 
20.2552 4.5679 0.605428 
20.7158 3.18454 1.20111 
30.4357 -0.116314 2.03858 
26.2214 3.19672 2.58408 
21.8062 2.40113 4.40201 
29.1743 -0.769033 5.78177 
29.1092 -0.635124 5.97492 
27.5572 1.50958 7.9881 
20.5261 0.167674 11.4716 
23.0177 3.80187 1.11329 
29.0783 -0.516453 3.59316 
28.2682 0.531692 8.80429 
27.6028 1.45201 8.51861 
29.209 -1.14243 9.17931 
20.8172 0.384464 10.2526 
20.1101 0.774284 11.0124 
19.9936 0.63729 11.7343 
29.6377 1.03891 0.608702 
29.6536 1.02101 1.03521 
29.5021 1.50425 2.62083 
30.0904 -3.58738 6.2608 
30.123 -3.742 6.0073 
29.6465 -1.46869 6.61558 
29.6386 -1.5073 7.83945 
29.5073 -1.08797 7.82854 
28.618 -0.288238 10.1828 
23.1921 1.62208 6.42633 
26.3456 2.20358 7.79757 
28.7358 -0.586862 10.3391 
28.7717 -0.773167 10.7775 
30.2072 0.176133 1.86633 
25.6739 4.03945 2.4048 
28.9585 -0.379212 3.86125 
21.9022 2.46279 3.71475 
28.9552 -0.51569 4.60054 
28.9761 -0.504613 5.29715 
28.9817 -0.450914 5.94879 
22.7284 1.80276 5.85455 
27.5331 1.56173 6.59831 
29.2207 -1.88777 10.4473 
29.2455 -1.90264 10.8244 
29.0544 2.04863 0.62303 
23.1901 3.21444 0.584999 
27.628 1.35269 3.41006 
23.2836 2.43141 3.40186 
28.267 0.548333 4.81071 
28.156 0.718871 6.20043 
28.9506 -0.423968 8.64109 
28.2004 0.633779 8.70264 
28.4019 2.81869 0.414718 
27.591 1.3752 3.43642 
28.2151 0.619726 4.85159 
28.172 0.726755 7.4007 
28.1939 0.670372 8.20074 
28.1973 0.560223 9.29396 
29.5534 1.18875 0.642146 
30.7837 1.15424 0.629642 
29.4947 1.28272 1.0709 
29.488 1.33094 1.6852 
29.4533 1.41745 1.98813 
30.4109 0.242782 2.59239 
29.3084 1.79247 2.59564 
24.1883 4.11636 2.19467 
28.4239 0.351488 4.60119 
29.5971 -2.42052 5.34802 
29.4187 -1.56492 5.18419 
29.4114 -1.36681 5.40357 
29.3338 -1.0337 5.88562 
23.5875 1.61475 6.55108 
29.4605 -1.32323 7.53643 
29.4648 -1.58321 8.9422 
29.4619 -1.56232 9.18727 
21.2406 0.58965 9.75916 
29.5112 1.26367 0.658867 
30.6113 -0.135344 2.39568 
30.4673 0.207977 2.62284 
29.3572 1.75076 2.63982 
29.6043 -2.42681 5.39338 
29.4271 -1.53209 5.25669 
21.8312 2.19988 4.98361 
29.3323 -0.921534 6.61515 
20.2315 0.660084 11.4787 
29.9463 0.537351 0.62382 
21.4837 2.66088 0.394756 
25.0653 4.8827 0.434057 
29.9661 0.471914 1.02201 
29.0249 1.99364 0.970175 
29.9258 0.618395 1.76363 
22.6123 2.5301 3.14765 
30.188 -3.84534 6.08474 
30.2162 -3.87383 6.35074 
28.7895 -0.0887137 6.60661 
28.8041 -0.452855 9.46464 
28.8599 -0.813618 10.1696 
29.0028 2.03551 0.863916 
20.8845 3.72867 2.03379 
22.5409 2.56411 3.09055 
30.2096 -3.87978 6.11055 
27.1053 1.99017 7.78083 
30.4372 -0.182717 1.95757 
28.5187 2.35888 2.38797 
20.6046 3.79715 2.43747 
21.2645 3.80052 2.19571 
28.9984 -0.227607 3.37117 
29.1504 -0.961903 4.59305 
23.9941 1.96316 5.7714 
28.9984 -0.346041 7.97479 
27.2021 1.90178 7.77679 
25.6285 2.25994 7.79532 
29.1794 -1.06941 8.89749 
29.1309 -1.11558 9.40277 
29.3117 -2.11327 10.3497 
29.3299 -2.11532 10.9216 
29.2778 -1.9728 10.7056 
20.6185 3.20587 1.19568 
30.4377 -0.204852 1.93057 
29.1291 -0.842458 4.00906 
20.842 0.397863 10.176 
29.3221 -2.1221 11.0569 
20.4302 -0.180905 11.993 
30.9599 0.947333 0.629851 
30.5037 0.13344 2.58397 
29.6646 1.08821 2.40974 
29.8719 -3.82186 5.06228 
29.6624 -2.50028 5.73979 
29.5211 -1.69101 7.56153 
29.4298 -1.12535 7.58081 
29.6797 -2.62481 7.80872 
29.3653 -0.821305 7.87526 
25.5946 2.27472 7.79387 
29.506 -1.69767 8.94113 
27.9201 1.0147 8.57058 
29.5177 -1.72374 9.19347 
20.475 -0.414685 12.1772 
29.6741 0.960527 0.643612 
28.4193 2.4025 2.38456 
23.0098 2.40066 3.83626 
27.9599 0.969277 5.95553 
27.96 0.997162 6.62252 
29.4276 -1.07248 7.60532 
28.5841 0.199375 7.40423 
27.9584 0.987475 8.006 
27.9498 0.974947 8.555 
20.3844 0.580487 9.67308 
29.797 0.583964 2.63893 
30.6022 0.0630464 2.64084 
28.6011 0.0856928 4.5564 
28.6014 0.0730161 5.24326 
28.615 -0.110311 9.6031 
30.1846 2.04668 0.328025 
30.2236 -0.0952365 0.95861 
30.1813 0.0600046 1.25156 
30.0102 0.495629 1.90556 
30.1614 0.196141 1.74876 
30.3528 0.196407 2.71869 
23.4922 4.05051 2.35971 
22.9807 4.39599 2.53797 
28.2166 0.825833 3.24824 
27.7215 1.30164 7.94417 
29.043 -0.992001 9.57994 
28.8822 -0.606123 9.39042 
20.727 -0.878901 11.3443 
29.125 2.06977 0.395039 
23.0158 3.76384 1.08031 
25.6024 3.69839 0.981439 
30.1412 0.212598 1.71731 
23.9889 3.90668 1.70369 
30.2281 0.263087 2.75762 
27.6086 1.42709 3.12409 
28.9855 -0.903483 9.66684 
17.1869 2.27524 0.454652 
29.5555 1.18326 1.06233 
30.4752 -0.207553 2.00715 
29.0416 1.90418 1.87411 
29.5647 1.23739 2.26324 
29.0385 -0.391096 3.43903 
28.8011 2.21759 2.80578 
29.2011 -0.91575 3.82135 
29.3641 -2.13408 4.28349 
29.298 -1.5703 4.50985 
27.4004 1.61863 5.25156 
28.4013 0.401717 8.06675 
20.2331 -0.230319 12.3104 
28.8433 2.4034 0.490846 
29.2521 -1.27604 4.79313 
29.2267 -1.14243 8.77536 
30.0662 2.06148 0.622226 
29.8046 0.837017 1.92757 
24.0121 2.25316 3.78212 
29.7562 -2.87581 5.67031 
29.7168 -2.65926 5.9095 
29.7297 -2.75775 7.69893 
29.5535 -1.60698 7.64312 
29.6335 -1.76608 7.78982 
29.6538 -2.25047 8.87054 
28.0924 0.784672 8.58009 
29.5808 -1.90708 9.3007 
22.9385 3.76731 1.08795 
29.9028 0.601835 2.5269 
27.6014 1.42644 4.57603 
29.7925 -3.13843 5.40921 
29.56 -1.56901 7.66303 
29.631 -1.89547 7.76501 
29.6 -1.96287 9.35295 
20.7963 -0.272204 10.7971 
20.4228 -0.718553 12.5095 
29.7373 1.7426 0.615821 
26.0252 4.79035 0.461282 
29.4225 1.40779 0.978193 
30.3731 -0.152559 1.76488 
29.4145 1.45362 1.76156 
27.8964 2.02768 2.66442 
28.9875 -0.449809 3.88902 
25.9769 2.125 7.41318 
27.8275 1.16185 7.97619 
29.0957 -0.930719 8.893 
29.1448 -1.64484 10.36 
29.0026 -1.19513 10.3403 
29.2 -1.77203 10.742 
30.9308 1.01313 0.596165 
24.3683 3.40612 0.599193 
22.8226 4.03204 1.29636 
23.9639 3.64859 1.15297 
29.0228 -0.50631 3.86238 
29.055 -0.756867 4.51207 
21.7603 2.40602 4.42327 
29.0257 -0.607555 5.22831 
28.9423 -0.484543 8.57193 
29.1068 -1.52338 10.3163 
29.0349 -1.29368 10.4003 
29.137 -1.63408 10.7521 
20.6774 -0.963641 10.9017 
29.409 1.50671 2.15237 
22.3725 4.38767 2.62171 
29.1054 -1.56511 10.7571 
29.7313 2.63247 0.409066 
30.1513 0.227387 1.81184 
22.8192 4.35958 2.02852 
23.3535 4.01617 2.48717 
30.1181 0.29502 2.80982 
29.6313 -3.85878 4.16066 
29.5559 -3.09785 4.32433 
29.4876 -2.41738 4.65581 
29.3428 -1.22022 5.39014 
30.0318 -3.6273 5.87554 
29.9181 -3.239 5.93759 
29.9383 -3.20179 6.62133 
29.9561 -3.37777 7.64706 
29.3378 -1.00583 7.46662 
29.9561 -3.39473 8.07332 
29.7699 -2.54671 8.05654 
29.6974 -1.92202 7.9262 
30.002 -3.77474 8.91386 
29.9573 -3.42229 8.5178 
22.89 1.38594 8.56273 
28.0699 0.819161 8.48209 
29.2032 -1.18076 9.32188 
29.4918 -2.74134 10.4301 
29.4548 -2.42996 10.7231 
28.1854 2.0217 2.60607 
25.6849 3.95138 2.40214 
30.03 -3.96202 5.45799 
29.3655 -1.25722 5.41913 
30.0123 -3.64061 5.74713 
28.6107 0.0999095 5.92966 
22.5467 1.78067 5.79811 
29.7306 -1.9353 8.00679 
28.6012 0.138587 8.02751 
29.3711 -1.42012 8.76254 
29.2843 -1.2846 9.22908 
29.7939 2.62239 0.398645 
29.6873 0.977894 1.23032 
26.3161 3.70025 1.80037 
29.2213 -0.700373 3.426 
28.9416 -0.17534 3.42943 
29.2944 -1.66643 4.33942 
27.7928 1.18866 4.57432 
24.0187 1.96869 5.78968 
29.2252 -1.86796 10.3076 
28.9573 -1.01715 10.1125 
29.2951 -2.14196 11.3116 
29.6646 1.01938 1.28744 
25.5996 3.36031 2.63027 
23.005 4.31063 2.60419 
28.8191 2.1952 2.81707 
22.4891 2.27579 4.99377 
28.8854 -0.608259 9.40176 
31.8728 -4.58709 0.591829 
31.9603 -3.91833 0.622181 
31.9766 -2.99709 0.656265 
31.819 -2.50715 0.508869 
31.9124 -1.51343 0.623311 
31.7984 -0.965038 0.551548 
30.0087 0.428012 0.582286 
29.2237 1.74539 0.650642 
31.9366 -4.84035 0.789634 
31.9867 -3.58736 0.730508 
31.0007 -2.2346 1.21198 
31.9419 -2.34776 0.72142 
30.7547 -1.86971 1.33697 
30.9503 -1.94911 1.34127 
31.9948 -1.85059 0.73992 
31.9354 -1.25764 0.740274 
30.0228 0.365977 1.03536 
31.2107 -2.23597 2.03747 
30.7277 -1.76153 1.45261 
30.9006 -1.81291 1.73061 
29.9981 0.48674 1.74368 
23.9304 3.95476 1.80573 
23.4035 4.2227 1.99975 
31.3312 -2.1967 2.41803 
30.8665 -0.474824 2.65229 
26.2722 1.90311 3.77797 
29.815 -3.81383 4.85241 
29.6587 -2.61164 5.47865 
29.7133 -2.4718 7.91733 
27.5711 1.48653 7.78935 
29.6446 -2.20302 8.7981 
31.8142 -1.03912 0.589196 
30.0084 0.469391 1.75765 
31.3225 -2.19257 2.39783 
31.2682 -2.05546 2.62539 
26.1151 3.14583 2.60552 
29.6927 -2.59239 5.89443 
23.3259 1.81117 6.00632 
29.6415 -2.1872 8.77395 
28.2578 0.565211 8.56917 
29.6169 -2.01228 9.41424 
31.9757 -3.1054 0.671627 
30.925 -2.25684 1.17066 
29.5962 1.2229 2.42473 
28.9874 -0.299328 3.41225 
30.2143 0.309483 2.80971 
29.1656 -1.00849 4.55234 
29.0736 -0.572528 6.04889 
29.1841 -1.23699 9.45767 
23.2253 4.41227 2.40908 
27.9324 1.10149 3.42679 
27.9872 0.977848 3.87056 
29.1235 -0.643125 6.06769 
27.9824 0.974833 7.3142 
20.2518 0.547981 9.99275 
31.048 -1.98594 1.3658 
31.1894 -2.19641 2.02224 
31.0799 -1.91163 1.68367 
31.1552 -1.97684 2.39873 
29.7124 -3.79787 4.49128 
29.6068 -3.12658 4.56393 
29.5018 -1.80487 5.43643 
29.5002 -1.21456 6.6114 
27.8033 1.20529 6.68237 
29.6228 -2.40863 7.6029 
27.8087 1.20043 7.35972 
29.5205 -1.74608 8.79132 
28.7962 -0.454884 9.50102 
31.8518 -1.55364 0.584585 
26.0076 4.73074 0.395836 
32.0191 -2.24247 0.777053 
31.0968 -2.00435 1.37806 
30.7257 -0.218512 2.54276 
29.9538 0.570284 2.3985 
22.7497 4.41671 2.60434 
29.6782 -3.79255 4.3709 
29.6152 -3.13137 4.60386 
29.563 -2.63375 4.82432 
29.5667 -2.3618 5.21741 
22.309 1.82184 5.72215 
29.4874 -1.1934 6.61906 
29.5841 -2.27404 7.56244 
28.7984 -0.109905 8.0036 
29.5252 -1.74489 9.26482 
16.0796 1.00689 0.356576 
29.4769 -0.994058 7.79295 
28.2375 0.618136 7.99952 
31.9318 -3.70927 0.554896 
31.9766 -3.69189 0.716812 
24.0189 3.67947 1.20073 
30.3891 -0.229434 1.76006 
29.6026 1.21169 2.44321 
23.4544 4.00916 2.41141 
22.9384 4.36763 2.62741 
28.0372 0.932131 3.79208 
30.0047 -3.40681 6.13286 
30.0547 -3.50959 6.64554 
30.0054 -3.36156 6.57393 
30.0548 -3.71678 7.40157 
30.0483 -3.65502 8.02724 
30.0355 -3.728 8.68574 
29.0195 -1.0685 9.90473 
23.9729 3.68374 1.22002 
25.0587 4.00116 1.59118 
28.1904 2.02466 2.59252 
30.0222 -3.4015 6.56208 
20.8355 0.133802 10.3628 
31.8019 -1.66618 0.570004 
30.9931 0.926437 0.483883 
29.2076 1.71227 1.82344 
25.2497 4.35769 2.43227 
29.5925 -3.72016 4.06429 
29.5421 -3.28868 4.09968 
28.835 -0.153625 3.78022 
29.5503 -2.9851 4.4035 
29.4871 -1.74026 5.3937 
29.5288 -2.89572 10.5054 
31.7913 -1.69352 0.567889 
31.0257 0.880658 0.428785 
29.3191 1.59359 0.647692 
28.8018 0.0200288 3.3538 
29.5337 -2.94833 4.35174 
29.5048 -2.17422 5.05549 
27.4535 1.62398 7.76456 
28.7974 -0.222734 8.80155 
20.3884 0.256199 11.6294 
